#!ascii from Mesh
40962 81920
12450 3135 12454 0
12440 3130 12450 0
12454 795 12440 0
12456 12455 12452 0
12452 3136 12456 0
12455 3135 12452 0
12456 201 12455 0
12459 12457 12458 0
12458 3138 12459 0
12457 3132 12458 0
12459 3137 12457 0
12437 12460 12458 0
12458 3132 12437 0
12460 3138 12458 0
12437 796 12460 0
12461 12442 12457 0
12457 3137 12461 0
12442 3132 12457 0
12461 794 12442 0
12463 12462 12459 0
12459 3138 12463 0
12462 3137 12459 0
12463 196 12462 0
12466 12464 12465 0
12465 3141 12466 0
12464 3140 12465 0
12466 3139 12464 0
12468 12467 12465 0
12465 3140 12468 0
12467 3141 12465 0
12468 787 12467 0
12470 12469 12464 0
12464 3139 12470 0
12469 3140 12464 0
12470 795 12469 0
12472 12471 12466 0
12466 3141 12472 0
12471 3139 12466 0
12472 797 12471 0
12475 12473 12474 0
12474 3135 12475 0
12473 3140 12474 0
12475 3105 12473 0
12469 12454 12474 0
12474 3140 12469 0
12454 3135 12474 0
12469 795 12454 0
12333 12468 12473 0
12473 3105 12333 0
12468 3140 12473 0
12333 787 12468 0
12455 12334 12475 0
12475 3135 12455 0
12334 3105 12475 0
12455 201 12334 0
12478 12476 12477 0
12477 3142 12478 0
12476 3139 12477 0
12478 3134 12476 0
12471 12479 12477 0
12477 3139 12471 0
12479 3142 12477 0
12471 797 12479 0
12446 12470 12476 0
12476 3134 12446 0
12470 3139 12476 0
12446 795 12470 0
12480 12449 12478 0
12478 3142 12480 0
12449 3134 12478 0
12480 205 12449 0
12483 12481 12482 0
12482 3106 12483 0
12481 3141 12482 0
12483 3143 12481 0
12467 12339 12482 0
12482 3141 12467 0
12339 3106 12482 0
12467 787 12339 0
12484 12472 12481 0
12481 3143 12484 0
12472 3141 12481 0
12484 797 12472 0
12340 12485 12483 0
12483 3106 12340 0
12485 3143 12483 0
12340 54 12485 0
12488 12486 12487 0
12487 3146 12488 0
12486 3145 12487 0
12488 3144 12486 0
12490 12489 12487 0
12487 3145 12490 0
12489 3146 12487 0
12490 762 12489 0
12492 12491 12486 0
12486 3144 12492 0
12491 3145 12486 0
12492 794 12491 0
12494 12493 12488 0
12488 3146 12494 0
12493 3144 12488 0
12494 786 12493 0
12497 12495 12496 0
12496 3137 12497 0
12495 3145 12496 0
12497 3012 12495 0
12491 12461 12496 0
12496 3145 12491 0
12461 3137 12496 0
12491 794 12461 0
11979 12490 12495 0
12495 3012 11979 0
12490 3145 12495 0
11979 762 12490 0
12462 11980 12497 0
12497 3137 12462 0
11980 3012 12497 0
12462 196 11980 0
12500 12498 12499 0
12499 3097 12500 0
12498 3144 12499 0
12500 3136 12498 0
12493 12302 12499 0
12499 3144 12493 0
12302 3097 12499 0
12493 786 12302 0
12453 12492 12498 0
12498 3136 12453 0
12492 3144 12498 0
12453 794 12492 0
12303 12456 12500 0
12500 3097 12303 0
12456 3136 12500 0
12303 201 12456 0
12503 12501 12502 0
12502 3013 12503 0
12501 3146 12502 0
12503 3100 12501 0
12489 11984 12502 0
12502 3146 12489 0
11984 3013 12502 0
12489 762 11984 0
12312 12494 12501 0
12501 3100 12312 0
12494 3146 12501 0
12312 786 12494 0
11985 12315 12503 0
12503 3013 11985 0
12315 3100 12503 0
11985 52 12315 0
12506 12504 12505 0
12505 3149 12506 0
12504 3148 12505 0
12506 3147 12504 0
12508 12507 12505 0
12505 3148 12508 0
12507 3149 12505 0
12508 798 12507 0
12510 12509 12504 0
12504 3147 12510 0
12509 3148 12504 0
12510 796 12509 0
12512 12511 12506 0
12506 3149 12512 0
12511 3147 12506 0
12512 765 12511 0
12515 12513 12514 0
12514 3133 12515 0
12513 3148 12514 0
12515 3150 12513 0
12509 12447 12514 0
12514 3148 12509 0
12447 3133 12514 0
12509 796 12447 0
12516 12508 12513 0
12513 3150 12516 0
12508 3148 12513 0
12516 798 12508 0
12448 12517 12515 0
12515 3133 12448 0
12517 3150 12515 0
12448 205 12517 0
12520 12518 12519 0
12519 3022 12520 0
12518 3147 12519 0
12520 3138 12518 0
12511 12020 12519 0
12519 3147 12511 0
12020 3022 12519 0
12511 765 12020 0
12460 12510 12518 0
12518 3138 12460 0
12510 3147 12518 0
12460 796 12510 0
12021 12463 12520 0
12520 3022 12021 0
12463 3138 12520 0
12021 196 12463 0
12523 12521 12522 0
12522 3151 12523 0
12521 3149 12522 0
12523 3025 12521 0
12507 12524 12522 0
12522 3149 12507 0
12524 3151 12522 0
12507 798 12524 0
12030 12512 12521 0
12521 3025 12030 0
12512 3149 12521 0
12030 765 12512 0
12525 12033 12523 0
12523 3151 12525 0
12033 3025 12523 0
12525 16 12033 0
12528 12526 12527 0
12527 3154 12528 0
12526 3153 12527 0
12528 3152 12526 0
12530 12529 12527 0
12527 3153 12530 0
12529 3154 12527 0
12530 801 12529 0
12532 12531 12526 0
12526 3152 12532 0
12531 3153 12526 0
12532 800 12531 0
12534 12533 12528 0
12528 3154 12534 0
12533 3152 12528 0
12534 799 12533 0
12537 12535 12536 0
12536 3156 12537 0
12535 3153 12536 0
12537 3155 12535 0
12531 12538 12536 0
12536 3153 12531 0
12538 3156 12536 0
12531 800 12538 0
12539 12530 12535 0
12535 3155 12539 0
12530 3153 12535 0
12539 801 12530 0
12541 12540 12537 0
12537 3156 12541 0
12540 3155 12537 0
12541 207 12540 0
12544 12542 12543 0
12543 3158 12544 0
12542 3152 12543 0
12544 3157 12542 0
12533 12545 12543 0
12543 3152 12533 0
12545 3158 12543 0
12533 799 12545 0
12546 12532 12542 0
12542 3157 12546 0
12532 3152 12542 0
12546 800 12532 0
12548 12547 12544 0
12544 3158 12548 0
12547 3157 12544 0
12548 203 12547 0
12551 12549 12550 0
12550 3160 12551 0
12549 3154 12550 0
12551 3159 12549 0
12529 12552 12550 0
12550 3154 12529 0
12552 3160 12550 0
12529 801 12552 0
12553 12534 12549 0
12549 3159 12553 0
12534 3154 12549 0
12553 799 12534 0
12555 12554 12551 0
12551 3160 12555 0
12554 3159 12551 0
12555 206 12554 0
12558 12556 12557 0
12557 3163 12558 0
12556 3162 12557 0
12558 3161 12556 0
12560 12559 12557 0
12557 3162 12560 0
12559 3163 12557 0
12560 783 12559 0
12562 12561 12556 0
12556 3161 12562 0
12561 3162 12556 0
12562 800 12561 0
12564 12563 12558 0
12558 3163 12564 0
12563 3161 12558 0
12564 802 12563 0
12567 12565 12566 0
12566 3157 12567 0
12565 3162 12566 0
12567 3091 12565 0
12561 12546 12566 0
12566 3162 12561 0
12546 3157 12566 0
12561 800 12546 0
12281 12560 12565 0
12565 3091 12281 0
12560 3162 12565 0
12281 783 12560 0
12547 12282 12567 0
12567 3157 12547 0
12282 3091 12567 0
12547 203 12282 0
12570 12568 12569 0
12569 3164 12570 0
12568 3161 12569 0
12570 3156 12568 0
12563 12571 12569 0
12569 3161 12563 0
12571 3164 12569 0
12563 802 12571 0
12538 12562 12568 0
12568 3156 12538 0
12562 3161 12568 0
12538 800 12562 0
12572 12541 12570 0
12570 3164 12572 0
12541 3156 12570 0
12572 207 12541 0
12575 12573 12574 0
12574 3092 12575 0
12573 3163 12574 0
12575 3165 12573 0
12559 12287 12574 0
12574 3163 12559 0
12287 3092 12574 0
12559 783 12287 0
12576 12564 12573 0
12573 3165 12576 0
12564 3163 12573 0
12576 802 12564 0
12288 12577 12575 0
12575 3092 12288 0
12577 3165 12575 0
12288 55 12577 0
12580 12578 12579 0
12579 3168 12580 0
12578 3167 12579 0
12580 3166 12578 0
12582 12581 12579 0
12579 3167 12582 0
12581 3168 12579 0
12582 803 12581 0
12584 12583 12578 0
12578 3166 12584 0
12583 3167 12578 0
12584 799 12583 0
12586 12585 12580 0
12580 3168 12586 0
12585 3166 12580 0
12586 788 12585 0
12589 12587 12588 0
12588 3159 12589 0
12587 3167 12588 0
12589 3169 12587 0
12583 12553 12588 0
12588 3167 12583 0
12553 3159 12588 0
12583 799 12553 0
12590 12582 12587 0
12587 3169 12590 0
12582 3167 12587 0
12590 803 12582 0
12554 12591 12589 0
12589 3159 12554 0
12591 3169 12589 0
12554 206 12591 0
12594 12592 12593 0
12593 3104 12594 0
12592 3166 12593 0
12594 3158 12592 0
12585 12328 12593 0
12593 3166 12585 0
12328 3104 12593 0
12585 788 12328 0
12545 12584 12592 0
12592 3158 12545 0
12584 3166 12592 0
12545 799 12584 0
12329 12548 12594 0
12594 3104 12329 0
12548 3158 12594 0
12329 203 12548 0
12597 12595 12596 0
12596 3170 12597 0
12595 3168 12596 0
12597 3107 12595 0
12581 12598 12596 0
12596 3168 12581 0
12598 3170 12596 0
12581 803 12598 0
12338 12586 12595 0
12595 3107 12338 0
12586 3168 12595 0
12338 788 12586 0
12599 12341 12597 0
12597 3170 12599 0
12341 3107 12597 0
12599 54 12341 0
12602 12600 12601 0
12601 3173 12602 0
12600 3172 12601 0
12602 3171 12600 0
12604 12603 12601 0
12601 3172 12604 0
12603 3173 12601 0
12604 805 12603 0
12606 12605 12600 0
12600 3171 12606 0
12605 3172 12600 0
12606 801 12605 0
12608 12607 12602 0
12602 3173 12608 0
12607 3171 12602 0
12608 804 12607 0
12611 12609 12610 0
12610 3155 12611 0
12609 3172 12610 0
12611 3174 12609 0
12605 12539 12610 0
12610 3172 12605 0
12539 3155 12610 0
12605 801 12539 0
12612 12604 12609 0
12609 3174 12612 0
12604 3172 12609 0
12612 805 12604 0
12540 12613 12611 0
12611 3155 12540 0
12613 3174 12611 0
12540 207 12613 0
12616 12614 12615 0
12615 3175 12616 0
12614 3171 12615 0
12616 3160 12614 0
12607 12617 12615 0
12615 3171 12607 0
12617 3175 12615 0
12607 804 12617 0
12552 12606 12614 0
12614 3160 12552 0
12606 3171 12614 0
12552 801 12606 0
12618 12555 12616 0
12616 3175 12618 0
12555 3160 12616 0
12618 206 12555 0
12621 12619 12620 0
12620 3177 12621 0
12619 3173 12620 0
12621 3176 12619 0
12603 12622 12620 0
12620 3173 12603 0
12622 3177 12620 0
12603 805 12622 0
12623 12608 12619 0
12619 3176 12623 0
12608 3173 12619 0
12623 804 12608 0
12625 12624 12621 0
12621 3177 12625 0
12624 3176 12621 0
12625 9 12624 0
12628 12626 12627 0
12627 3180 12628 0
12626 3179 12627 0
12628 3178 12626 0
12630 12629 12627 0
12627 3179 12630 0
12629 3180 12627 0
12630 808 12629 0
12632 12631 12626 0
12626 3178 12632 0
12631 3179 12626 0
12632 807 12631 0
12634 12633 12628 0
12628 3180 12634 0
12633 3178 12628 0
12634 806 12633 0
12637 12635 12636 0
12636 3182 12637 0
12635 3179 12636 0
12637 3181 12635 0
12631 12638 12636 0
12636 3179 12631 0
12638 3182 12636 0
12631 807 12638 0
12639 12630 12635 0
12635 3181 12639 0
12630 3179 12635 0
12639 808 12630 0
12641 12640 12637 0
12637 3182 12641 0
12640 3181 12637 0
12641 210 12640 0
12644 12642 12643 0
12643 3184 12644 0
12642 3178 12643 0
12644 3183 12642 0
12633 12645 12643 0
12643 3178 12633 0
12645 3184 12643 0
12633 806 12645 0
12646 12632 12642 0
12642 3183 12646 0
12632 3178 12642 0
12646 807 12632 0
12648 12647 12644 0
12644 3184 12648 0
12647 3183 12644 0
12648 209 12647 0
12651 12649 12650 0
12650 3186 12651 0
12649 3180 12650 0
12651 3185 12649 0
12629 12652 12650 0
12650 3180 12629 0
12652 3186 12650 0
12629 808 12652 0
12653 12634 12649 0
12649 3185 12653 0
12634 3180 12649 0
12653 806 12634 0
12655 12654 12651 0
12651 3186 12655 0
12654 3185 12651 0
12655 208 12654 0
12658 12656 12657 0
12657 3189 12658 0
12656 3188 12657 0
12658 3187 12656 0
12660 12659 12657 0
12657 3188 12660 0
12659 3189 12657 0
12660 810 12659 0
12662 12661 12656 0
12656 3187 12662 0
12661 3188 12656 0
12662 807 12661 0
12664 12663 12658 0
12658 3189 12664 0
12663 3187 12658 0
12664 809 12663 0
12667 12665 12666 0
12666 3183 12667 0
12665 3188 12666 0
12667 3190 12665 0
12661 12646 12666 0
12666 3188 12661 0
12646 3183 12666 0
12661 807 12646 0
12668 12660 12665 0
12665 3190 12668 0
12660 3188 12665 0
12668 810 12660 0
12647 12669 12667 0
12667 3183 12647 0
12669 3190 12667 0
12647 209 12669 0
12672 12670 12671 0
12671 3191 12672 0
12670 3187 12671 0
12672 3182 12670 0
12663 12673 12671 0
12671 3187 12663 0
12673 3191 12671 0
12663 809 12673 0
12638 12662 12670 0
12670 3182 12638 0
12662 3187 12670 0
12638 807 12662 0
12674 12641 12672 0
12672 3191 12674 0
12641 3182 12672 0
12674 210 12641 0
12677 12675 12676 0
12676 3193 12677 0
12675 3189 12676 0
12677 3192 12675 0
12659 12678 12676 0
12676 3189 12659 0
12678 3193 12676 0
12659 810 12678 0
12679 12664 12675 0
12675 3192 12679 0
12664 3189 12675 0
12679 809 12664 0
12681 12680 12677 0
12677 3193 12681 0
12680 3192 12677 0
12681 45 12680 0
12684 12682 12683 0
12683 3196 12684 0
12682 3195 12683 0
12684 3194 12682 0
12686 12685 12683 0
12683 3195 12686 0
12685 3196 12683 0
12686 812 12685 0
12688 12687 12682 0
12682 3194 12688 0
12687 3195 12682 0
12688 806 12687 0
12690 12689 12684 0
12684 3196 12690 0
12689 3194 12684 0
12690 811 12689 0
12693 12691 12692 0
12692 3185 12693 0
12691 3195 12692 0
12693 3197 12691 0
12687 12653 12692 0
12692 3195 12687 0
12653 3185 12692 0
12687 806 12653 0
12694 12686 12691 0
12691 3197 12694 0
12686 3195 12691 0
12694 812 12686 0
12654 12695 12693 0
12693 3185 12654 0
12695 3197 12693 0
12654 208 12695 0
12698 12696 12697 0
12697 3198 12698 0
12696 3194 12697 0
12698 3184 12696 0
12689 12699 12697 0
12697 3194 12689 0
12699 3198 12697 0
12689 811 12699 0
12645 12688 12696 0
12696 3184 12645 0
12688 3194 12696 0
12645 806 12688 0
12700 12648 12698 0
12698 3198 12700 0
12648 3184 12698 0
12700 209 12648 0
12703 12701 12702 0
12702 3200 12703 0
12701 3196 12702 0
12703 3199 12701 0
12685 12704 12702 0
12702 3196 12685 0
12704 3200 12702 0
12685 812 12704 0
12705 12690 12701 0
12701 3199 12705 0
12690 3196 12701 0
12705 811 12690 0
12707 12706 12703 0
12703 3200 12707 0
12706 3199 12703 0
12707 51 12706 0
12710 12708 12709 0
12709 3203 12710 0
12708 3202 12709 0
12710 3201 12708 0
12712 12711 12709 0
12709 3202 12712 0
12711 3203 12709 0
12712 814 12711 0
12714 12713 12708 0
12708 3201 12714 0
12713 3202 12708 0
12714 808 12713 0
12716 12715 12710 0
12710 3203 12716 0
12715 3201 12710 0
12716 813 12715 0
12719 12717 12718 0
12718 3181 12719 0
12717 3202 12718 0
12719 3204 12717 0
12713 12639 12718 0
12718 3202 12713 0
12639 3181 12718 0
12713 808 12639 0
12720 12712 12717 0
12717 3204 12720 0
12712 3202 12717 0
12720 814 12712 0
12640 12721 12719 0
12719 3181 12640 0
12721 3204 12719 0
12640 210 12721 0
12724 12722 12723 0
12723 3205 12724 0
12722 3201 12723 0
12724 3186 12722 0
12715 12725 12723 0
12723 3201 12715 0
12725 3205 12723 0
12715 813 12725 0
12652 12714 12722 0
12722 3186 12652 0
12714 3201 12722 0
12652 808 12714 0
12726 12655 12724 0
12724 3205 12726 0
12655 3186 12724 0
12726 208 12655 0
12729 12727 12728 0
12728 3207 12729 0
12727 3203 12728 0
12729 3206 12727 0
12711 12730 12728 0
12728 3203 12711 0
12730 3207 12728 0
12711 814 12730 0
12731 12716 12727 0
12727 3206 12731 0
12716 3203 12727 0
12731 813 12716 0
12733 12732 12729 0
12729 3207 12733 0
12732 3206 12729 0
12733 56 12732 0
12736 12734 12735 0
12735 3210 12736 0
12734 3209 12735 0
12736 3208 12734 0
12738 12737 12735 0
12735 3209 12738 0
12737 3210 12735 0
12738 817 12737 0
12740 12739 12734 0
12734 3208 12740 0
12739 3209 12734 0
12740 816 12739 0
12742 12741 12736 0
12736 3210 12742 0
12741 3208 12736 0
12742 815 12741 0
12745 12743 12744 0
12744 3212 12745 0
12743 3209 12744 0
12745 3211 12743 0
12739 12746 12744 0
12744 3209 12739 0
12746 3212 12744 0
12739 816 12746 0
12747 12738 12743 0
12743 3211 12747 0
12738 3209 12743 0
12747 817 12738 0
12749 12748 12745 0
12745 3212 12749 0
12748 3211 12745 0
12749 199 12748 0
12752 12750 12751 0
12751 3214 12752 0
12750 3208 12751 0
12752 3213 12750 0
12741 12753 12751 0
12751 3208 12741 0
12753 3214 12751 0
12741 815 12753 0
12754 12740 12750 0
12750 3213 12754 0
12740 3208 12750 0
12754 816 12740 0
12756 12755 12752 0
12752 3214 12756 0
12755 3213 12752 0
12756 209 12755 0
12759 12757 12758 0
12758 3216 12759 0
12757 3210 12758 0
12759 3215 12757 0
12737 12760 12758 0
12758 3210 12737 0
12760 3216 12758 0
12737 817 12760 0
12761 12742 12757 0
12757 3215 12761 0
12742 3210 12757 0
12761 815 12742 0
12763 12762 12759 0
12759 3216 12763 0
12762 3215 12759 0
12763 175 12762 0
12766 12764 12765 0
12765 3219 12766 0
12764 3218 12765 0
12766 3217 12764 0
12768 12767 12765 0
12765 3218 12768 0
12767 3219 12765 0
12768 811 12767 0
12770 12769 12764 0
12764 3217 12770 0
12769 3218 12764 0
12770 816 12769 0
12772 12771 12766 0
12766 3219 12772 0
12771 3217 12766 0
12772 777 12771 0
12775 12773 12774 0
12774 3213 12775 0
12773 3218 12774 0
12775 3198 12773 0
12769 12754 12774 0
12774 3218 12769 0
12754 3213 12774 0
12769 816 12754 0
12699 12768 12773 0
12773 3198 12699 0
12768 3218 12773 0
12699 811 12768 0
12755 12700 12775 0
12775 3213 12755 0
12700 3198 12775 0
12755 209 12700 0
12778 12776 12777 0
12777 3069 12778 0
12776 3217 12777 0
12778 3212 12776 0
12771 12198 12777 0
12777 3217 12771 0
12198 3069 12777 0
12771 777 12198 0
12746 12770 12776 0
12776 3212 12746 0
12770 3217 12776 0
12746 816 12770 0
12199 12749 12778 0
12778 3069 12199 0
12749 3212 12778 0
12199 199 12749 0
12781 12779 12780 0
12780 3199 12781 0
12779 3219 12780 0
12781 3070 12779 0
12767 12705 12780 0
12780 3219 12767 0
12705 3199 12780 0
12767 811 12705 0
12206 12772 12779 0
12779 3070 12206 0
12772 3219 12779 0
12206 777 12772 0
12706 12207 12781 0
12781 3199 12706 0
12207 3070 12781 0
12706 51 12207 0
12784 12782 12783 0
12783 3222 12784 0
12782 3221 12783 0
12784 3220 12782 0
12786 12785 12783 0
12783 3221 12786 0
12785 3222 12783 0
12786 689 12785 0
12788 12787 12782 0
12782 3220 12788 0
12787 3221 12782 0
12788 815 12787 0
12790 12789 12784 0
12784 3222 12790 0
12789 3220 12784 0
12790 810 12789 0
12793 12791 12792 0
12792 3215 12793 0
12791 3221 12792 0
12793 2734 12791 0
12787 12761 12792 0
12792 3221 12787 0
12761 3215 12792 0
12787 815 12761 0
10895 12786 12791 0
12791 2734 10895 0
12786 3221 12791 0
10895 689 12786 0
12762 10896 12793 0
12793 3215 12762 0
10896 2734 12793 0
12762 175 10896 0
12796 12794 12795 0
12795 3190 12796 0
12794 3220 12795 0
12796 3214 12794 0
12789 12668 12795 0
12795 3220 12789 0
12668 3190 12795 0
12789 810 12668 0
12753 12788 12794 0
12794 3214 12753 0
12788 3220 12794 0
12753 815 12788 0
12669 12756 12796 0
12796 3190 12669 0
12756 3214 12796 0
12669 209 12756 0
12799 12797 12798 0
12798 2735 12799 0
12797 3222 12798 0
12799 3193 12797 0
12785 10900 12798 0
12798 3222 12785 0
10900 2735 12798 0
12785 689 10900 0
12678 12790 12797 0
12797 3193 12678 0
12790 3222 12797 0
12678 810 12790 0
10901 12681 12799 0
12799 2735 10901 0
12681 3193 12799 0
10901 45 12681 0
12802 12800 12801 0
12801 3225 12802 0
12800 3224 12801 0
12802 3223 12800 0
12804 12803 12801 0
12801 3224 12804 0
12803 3225 12801 0
12804 778 12803 0
12806 12805 12800 0
12800 3223 12806 0
12805 3224 12800 0
12806 817 12805 0
12808 12807 12802 0
12802 3225 12808 0
12807 3223 12802 0
12808 690 12807 0
12811 12809 12810 0
12810 3211 12811 0
12809 3224 12810 0
12811 3075 12809 0
12805 12747 12810 0
12810 3224 12805 0
12747 3211 12810 0
12805 817 12747 0
12225 12804 12809 0
12809 3075 12225 0
12804 3224 12809 0
12225 778 12804 0
12748 12226 12811 0
12811 3211 12748 0
12226 3075 12811 0
12748 199 12226 0
12814 12812 12813 0
12813 2742 12814 0
12812 3223 12813 0
12814 3216 12812 0
12807 10932 12813 0
12813 3223 12807 0
10932 2742 12813 0
12807 690 10932 0
12760 12806 12812 0
12812 3216 12760 0
12806 3223 12812 0
12760 817 12806 0
10933 12763 12814 0
12814 2742 10933 0
12763 3216 12814 0
10933 175 12763 0
12817 12815 12816 0
12816 3076 12817 0
12815 3225 12816 0
12817 2743 12815 0
12803 12231 12816 0
12816 3225 12803 0
12231 3076 12816 0
12803 778 12231 0
10940 12808 12815 0
12815 2743 10940 0
12808 3225 12815 0
10940 690 12808 0
12232 10941 12817 0
12817 3076 12232 0
10941 2743 12817 0
12232 14 10941 0
12820 12818 12819 0
12819 3228 12820 0
12818 3227 12819 0
12820 3226 12818 0
12822 12821 12819 0
12819 3227 12822 0
12821 3228 12819 0
12822 820 12821 0
12824 12823 12818 0
12818 3226 12824 0
12823 3227 12818 0
12824 819 12823 0
12826 12825 12820 0
12820 3228 12826 0
12825 3226 12820 0
12826 818 12825 0
12829 12827 12828 0
12828 3230 12829 0
12827 3227 12828 0
12829 3229 12827 0
12823 12830 12828 0
12828 3227 12823 0
12830 3230 12828 0
12823 819 12830 0
12831 12822 12827 0
12827 3229 12831 0
12822 3227 12827 0
12831 820 12822 0
12833 12832 12829 0
12829 3230 12833 0
12832 3229 12829 0
12833 211 12832 0
12836 12834 12835 0
12835 3232 12836 0
12834 3226 12835 0
12836 3231 12834 0
12825 12837 12835 0
12835 3226 12825 0
12837 3232 12835 0
12825 818 12837 0
12838 12824 12834 0
12834 3231 12838 0
12824 3226 12834 0
12838 819 12824 0
12840 12839 12836 0
12836 3232 12840 0
12839 3231 12836 0
12840 208 12839 0
12843 12841 12842 0
12842 3234 12843 0
12841 3228 12842 0
12843 3233 12841 0
12821 12844 12842 0
12842 3228 12821 0
12844 3234 12842 0
12821 820 12844 0
12845 12826 12841 0
12841 3233 12845 0
12826 3228 12841 0
12845 818 12826 0
12847 12846 12843 0
12843 3234 12847 0
12846 3233 12843 0
12847 198 12846 0
12850 12848 12849 0
12849 3237 12850 0
12848 3236 12849 0
12850 3235 12848 0
12852 12851 12849 0
12849 3236 12852 0
12851 3237 12849 0
12852 813 12851 0
12854 12853 12848 0
12848 3235 12854 0
12853 3236 12848 0
12854 819 12853 0
12856 12855 12850 0
12850 3237 12856 0
12855 3235 12850 0
12856 821 12855 0
12859 12857 12858 0
12858 3231 12859 0
12857 3236 12858 0
12859 3205 12857 0
12853 12838 12858 0
12858 3236 12853 0
12838 3231 12858 0
12853 819 12838 0
12725 12852 12857 0
12857 3205 12725 0
12852 3236 12857 0
12725 813 12852 0
12839 12726 12859 0
12859 3231 12839 0
12726 3205 12859 0
12839 208 12726 0
12862 12860 12861 0
12861 3238 12862 0
12860 3235 12861 0
12862 3230 12860 0
12855 12863 12861 0
12861 3235 12855 0
12863 3238 12861 0
12855 821 12863 0
12830 12854 12860 0
12860 3230 12830 0
12854 3235 12860 0
12830 819 12854 0
12864 12833 12862 0
12862 3238 12864 0
12833 3230 12862 0
12864 211 12833 0
12867 12865 12866 0
12866 3206 12867 0
12865 3237 12866 0
12867 3239 12865 0
12851 12731 12866 0
12866 3237 12851 0
12731 3206 12866 0
12851 813 12731 0
12868 12856 12865 0
12865 3239 12868 0
12856 3237 12865 0
12868 821 12856 0
12732 12869 12867 0
12867 3206 12732 0
12869 3239 12867 0
12732 56 12869 0
12872 12870 12871 0
12871 3242 12872 0
12870 3241 12871 0
12872 3240 12870 0
12874 12873 12871 0
12871 3241 12874 0
12873 3242 12871 0
12874 769 12873 0
12876 12875 12870 0
12870 3240 12876 0
12875 3241 12870 0
12876 818 12875 0
12878 12877 12872 0
12872 3242 12878 0
12877 3240 12872 0
12878 812 12877 0
12881 12879 12880 0
12880 3233 12881 0
12879 3241 12880 0
12881 3038 12879 0
12875 12845 12880 0
12880 3241 12875 0
12845 3233 12880 0
12875 818 12845 0
12079 12874 12879 0
12879 3038 12079 0
12874 3241 12879 0
12079 769 12874 0
12846 12080 12881 0
12881 3233 12846 0
12080 3038 12881 0
12846 198 12080 0
12884 12882 12883 0
12883 3197 12884 0
12882 3240 12883 0
12884 3232 12882 0
12877 12694 12883 0
12883 3240 12877 0
12694 3197 12883 0
12877 812 12694 0
12837 12876 12882 0
12882 3232 12837 0
12876 3240 12882 0
12837 818 12876 0
12695 12840 12884 0
12884 3197 12695 0
12840 3232 12884 0
12695 208 12840 0
12887 12885 12886 0
12886 3039 12887 0
12885 3242 12886 0
12887 3200 12885 0
12873 12084 12886 0
12886 3242 12873 0
12084 3039 12886 0
12873 769 12084 0
12704 12878 12885 0
12885 3200 12704 0
12878 3242 12885 0
12704 812 12878 0
12085 12707 12887 0
12887 3039 12085 0
12707 3200 12887 0
12085 51 12707 0
12890 12888 12889 0
12889 3245 12890 0
12888 3244 12889 0
12890 3243 12888 0
12892 12891 12889 0
12889 3244 12892 0
12891 3245 12889 0
12892 822 12891 0
12894 12893 12888 0
12888 3243 12894 0
12893 3244 12888 0
12894 820 12893 0
12896 12895 12890 0
12890 3245 12896 0
12895 3243 12890 0
12896 772 12895 0
12899 12897 12898 0
12898 3229 12899 0
12897 3244 12898 0
12899 3246 12897 0
12893 12831 12898 0
12898 3244 12893 0
12831 3229 12898 0
12893 820 12831 0
12900 12892 12897 0
12897 3246 12900 0
12892 3244 12897 0
12900 822 12892 0
12832 12901 12899 0
12899 3229 12832 0
12901 3246 12899 0
12832 211 12901 0
12904 12902 12903 0
12903 3048 12904 0
12902 3243 12903 0
12904 3234 12902 0
12895 12120 12903 0
12903 3243 12895 0
12120 3048 12903 0
12895 772 12120 0
12844 12894 12902 0
12902 3234 12844 0
12894 3243 12902 0
12844 820 12894 0
12121 12847 12904 0
12904 3048 12121 0
12847 3234 12904 0
12121 198 12847 0
12907 12905 12906 0
12906 3247 12907 0
12905 3245 12906 0
12907 3051 12905 0
12891 12908 12906 0
12906 3245 12891 0
12908 3247 12906 0
12891 822 12908 0
12130 12896 12905 0
12905 3051 12130 0
12896 3245 12905 0
12130 772 12896 0
12909 12133 12907 0
12907 3247 12909 0
12133 3051 12907 0
12909 15 12133 0
12912 12910 12911 0
12911 3250 12912 0
12910 3249 12911 0
12912 3248 12910 0
12914 12913 12911 0
12911 3249 12914 0
12913 3250 12911 0
12914 825 12913 0
12916 12915 12910 0
12910 3248 12916 0
12915 3249 12910 0
12916 824 12915 0
12918 12917 12912 0
12912 3250 12918 0
12917 3248 12912 0
12918 823 12917 0
12921 12919 12920 0
12920 3252 12921 0
12919 3249 12920 0
12921 3251 12919 0
12915 12922 12920 0
12920 3249 12915 0
12922 3252 12920 0
12915 824 12922 0
12923 12914 12919 0
12919 3251 12923 0
12914 3249 12919 0
12923 825 12914 0
12925 12924 12921 0
12921 3252 12925 0
12924 3251 12921 0
12925 176 12924 0
12928 12926 12927 0
12927 3254 12928 0
12926 3248 12927 0
12928 3253 12926 0
12917 12929 12927 0
12927 3248 12917 0
12929 3254 12927 0
12917 823 12929 0
12930 12916 12926 0
12926 3253 12930 0
12916 3248 12926 0
12930 824 12916 0
12932 12931 12928 0
12928 3254 12932 0
12931 3253 12928 0
12932 210 12931 0
12935 12933 12934 0
12934 3256 12935 0
12933 3250 12934 0
12935 3255 12933 0
12913 12936 12934 0
12934 3250 12913 0
12936 3256 12934 0
12913 825 12936 0
12937 12918 12933 0
12933 3255 12937 0
12918 3250 12933 0
12937 823 12918 0
12939 12938 12935 0
12935 3256 12939 0
12938 3255 12935 0
12939 212 12938 0
12942 12940 12941 0
12941 3259 12942 0
12940 3258 12941 0
12942 3257 12940 0
12944 12943 12941 0
12941 3258 12944 0
12943 3259 12941 0
12944 809 12943 0
12946 12945 12940 0
12940 3257 12946 0
12945 3258 12940 0
12946 824 12945 0
12948 12947 12942 0
12942 3259 12948 0
12947 3257 12942 0
12948 695 12947 0
12951 12949 12950 0
12950 3253 12951 0
12949 3258 12950 0
12951 3191 12949 0
12945 12930 12950 0
12950 3258 12945 0
12930 3253 12950 0
12945 824 12930 0
12673 12944 12949 0
12949 3191 12673 0
12944 3258 12949 0
12673 809 12944 0
12931 12674 12951 0
12951 3253 12931 0
12674 3191 12951 0
12931 210 12674 0
12954 12952 12953 0
12953 2761 12954 0
12952 3257 12953 0
12954 3252 12952 0
12947 11006 12953 0
12953 3257 12947 0
11006 2761 12953 0
12947 695 11006 0
12922 12946 12952 0
12952 3252 12922 0
12946 3257 12952 0
12922 824 12946 0
11007 12925 12954 0
12954 2761 11007 0
12925 3252 12954 0
11007 176 12925 0
12957 12955 12956 0
12956 3192 12957 0
12955 3259 12956 0
12957 2762 12955 0
12943 12679 12956 0
12956 3259 12943 0
12679 3192 12956 0
12943 809 12679 0
11014 12948 12955 0
12955 2762 11014 0
12948 3259 12955 0
11014 695 12948 0
12680 11015 12957 0
12957 3192 12680 0
11015 2762 12957 0
12680 45 11015 0
12960 12958 12959 0
12959 3262 12960 0
12958 3261 12959 0
12960 3260 12958 0
12962 12961 12959 0
12959 3261 12962 0
12961 3262 12959 0
12962 826 12961 0
12964 12963 12958 0
12958 3260 12964 0
12963 3261 12958 0
12964 823 12963 0
12966 12965 12960 0
12960 3262 12966 0
12965 3260 12960 0
12966 814 12965 0
12969 12967 12968 0
12968 3255 12969 0
12967 3261 12968 0
12969 3263 12967 0
12963 12937 12968 0
12968 3261 12963 0
12937 3255 12968 0
12963 823 12937 0
12970 12962 12967 0
12967 3263 12970 0
12962 3261 12967 0
12970 826 12962 0
12938 12971 12969 0
12969 3255 12938 0
12971 3263 12969 0
12938 212 12971 0
12974 12972 12973 0
12973 3204 12974 0
12972 3260 12973 0
12974 3254 12972 0
12965 12720 12973 0
12973 3260 12965 0
12720 3204 12973 0
12965 814 12720 0
12929 12964 12972 0
12972 3254 12929 0
12964 3260 12972 0
12929 823 12964 0
12721 12932 12974 0
12974 3204 12721 0
12932 3254 12974 0
12721 210 12932 0
12977 12975 12976 0
12976 3264 12977 0
12975 3262 12976 0
12977 3207 12975 0
12961 12978 12976 0
12976 3262 12961 0
12978 3264 12976 0
12961 826 12978 0
12730 12966 12975 0
12975 3207 12730 0
12966 3262 12975 0
12730 814 12966 0
12979 12733 12977 0
12977 3264 12979 0
12733 3207 12977 0
12979 56 12733 0
12982 12980 12981 0
12981 3267 12982 0
12980 3266 12981 0
12982 3265 12980 0
12984 12983 12981 0
12981 3266 12984 0
12983 3267 12981 0
12984 696 12983 0
12986 12985 12980 0
12980 3265 12986 0
12985 3266 12980 0
12986 825 12985 0
12988 12987 12982 0
12982 3267 12988 0
12987 3265 12982 0
12988 827 12987 0
12991 12989 12990 0
12990 3251 12991 0
12989 3266 12990 0
12991 2767 12989 0
12985 12923 12990 0
12990 3266 12985 0
12923 3251 12990 0
12985 825 12923 0
11033 12984 12989 0
12989 2767 11033 0
12984 3266 12989 0
11033 696 12984 0
12924 11034 12991 0
12991 3251 12924 0
11034 2767 12991 0
12924 176 11034 0
12994 12992 12993 0
12993 3268 12994 0
12992 3265 12993 0
12994 3256 12992 0
12987 12995 12993 0
12993 3265 12987 0
12995 3268 12993 0
12987 827 12995 0
12936 12986 12992 0
12992 3256 12936 0
12986 3265 12992 0
12936 825 12986 0
12996 12939 12994 0
12994 3268 12996 0
12939 3256 12994 0
12996 212 12939 0
12999 12997 12998 0
12998 2768 12999 0
12997 3267 12998 0
12999 3269 12997 0
12983 11039 12998 0
12998 3267 12983 0
11039 2768 12998 0
12983 696 11039 0
13000 12988 12997 0
12997 3269 13000 0
12988 3267 12997 0
13000 827 12988 0
11040 13001 12999 0
12999 2768 11040 0
13001 3269 12999 0
11040 7 13001 0
13004 13002 13003 0
13003 3272 13004 0
13002 3271 13003 0
13004 3270 13002 0
13006 13005 13003 0
13003 3271 13006 0
13005 3272 13003 0
13006 830 13005 0
13008 13007 13002 0
13002 3270 13008 0
13007 3271 13002 0
13008 829 13007 0
13010 13009 13004 0
13004 3272 13010 0
13009 3270 13004 0
13010 828 13009 0
13013 13011 13012 0
13012 3274 13013 0
13011 3271 13012 0
13013 3273 13011 0
13007 13014 13012 0
13012 3271 13007 0
13014 3274 13012 0
13007 829 13014 0
13015 13006 13011 0
13011 3273 13015 0
13006 3271 13011 0
13015 830 13006 0
13017 13016 13013 0
13013 3274 13017 0
13016 3273 13013 0
13017 215 13016 0
13020 13018 13019 0
13019 3276 13020 0
13018 3270 13019 0
13020 3275 13018 0
13009 13021 13019 0
13019 3270 13009 0
13021 3276 13019 0
13009 828 13021 0
13022 13008 13018 0
13018 3275 13022 0
13008 3270 13018 0
13022 829 13008 0
13024 13023 13020 0
13020 3276 13024 0
13023 3275 13020 0
13024 214 13023 0
13027 13025 13026 0
13026 3278 13027 0
13025 3272 13026 0
13027 3277 13025 0
13005 13028 13026 0
13026 3272 13005 0
13028 3278 13026 0
13005 830 13028 0
13029 13010 13025 0
13025 3277 13029 0
13010 3272 13025 0
13029 828 13010 0
13031 13030 13027 0
13027 3278 13031 0
13030 3277 13027 0
13031 213 13030 0
13034 13032 13033 0
13033 3281 13034 0
13032 3280 13033 0
13034 3279 13032 0
13036 13035 13033 0
13033 3280 13036 0
13035 3281 13033 0
13036 832 13035 0
13038 13037 13032 0
13032 3279 13038 0
13037 3280 13032 0
13038 829 13037 0
13040 13039 13034 0
13034 3281 13040 0
13039 3279 13034 0
13040 831 13039 0
13043 13041 13042 0
13042 3275 13043 0
13041 3280 13042 0
13043 3282 13041 0
13037 13022 13042 0
13042 3280 13037 0
13022 3275 13042 0
13037 829 13022 0
13044 13036 13041 0
13041 3282 13044 0
13036 3280 13041 0
13044 832 13036 0
13023 13045 13043 0
13043 3275 13023 0
13045 3282 13043 0
13023 214 13045 0
13048 13046 13047 0
13047 3283 13048 0
13046 3279 13047 0
13048 3274 13046 0
13039 13049 13047 0
13047 3279 13039 0
13049 3283 13047 0
13039 831 13049 0
13014 13038 13046 0
13046 3274 13014 0
13038 3279 13046 0
13014 829 13038 0
13050 13017 13048 0
13048 3283 13050 0
13017 3274 13048 0
13050 215 13017 0
13053 13051 13052 0
13052 3285 13053 0
13051 3281 13052 0
13053 3284 13051 0
13035 13054 13052 0
13052 3281 13035 0
13054 3285 13052 0
13035 832 13054 0
13055 13040 13051 0
13051 3284 13055 0
13040 3281 13051 0
13055 831 13040 0
13057 13056 13053 0
13053 3285 13057 0
13056 3284 13053 0
13057 57 13056 0
13060 13058 13059 0
13059 3288 13060 0
13058 3287 13059 0
13060 3286 13058 0
13062 13061 13059 0
13059 3287 13062 0
13061 3288 13059 0
13062 834 13061 0
13064 13063 13058 0
13058 3286 13064 0
13063 3287 13058 0
13064 828 13063 0
13066 13065 13060 0
13060 3288 13066 0
13065 3286 13060 0
13066 833 13065 0
13069 13067 13068 0
13068 3277 13069 0
13067 3287 13068 0
13069 3289 13067 0
13063 13029 13068 0
13068 3287 13063 0
13029 3277 13068 0
13063 828 13029 0
13070 13062 13067 0
13067 3289 13070 0
13062 3287 13067 0
13070 834 13062 0
13030 13071 13069 0
13069 3277 13030 0
13071 3289 13069 0
13030 213 13071 0
13074 13072 13073 0
13073 3290 13074 0
13072 3286 13073 0
13074 3276 13072 0
13065 13075 13073 0
13073 3286 13065 0
13075 3290 13073 0
13065 833 13075 0
13021 13064 13072 0
13072 3276 13021 0
13064 3286 13072 0
13021 828 13064 0
13076 13024 13074 0
13074 3290 13076 0
13024 3276 13074 0
13076 214 13024 0
13079 13077 13078 0
13078 3292 13079 0
13077 3288 13078 0
13079 3291 13077 0
13061 13080 13078 0
13078 3288 13061 0
13080 3292 13078 0
13061 834 13080 0
13081 13066 13077 0
13077 3291 13081 0
13066 3288 13077 0
13081 833 13066 0
13083 13082 13079 0
13079 3292 13083 0
13082 3291 13079 0
13083 53 13082 0
13086 13084 13085 0
13085 3295 13086 0
13084 3294 13085 0
13086 3293 13084 0
13088 13087 13085 0
13085 3294 13088 0
13087 3295 13085 0
13088 836 13087 0
13090 13089 13084 0
13084 3293 13090 0
13089 3294 13084 0
13090 830 13089 0
13092 13091 13086 0
13086 3295 13092 0
13091 3293 13086 0
13092 835 13091 0
13095 13093 13094 0
13094 3273 13095 0
13093 3294 13094 0
13095 3296 13093 0
13089 13015 13094 0
13094 3294 13089 0
13015 3273 13094 0
13089 830 13015 0
13096 13088 13093 0
13093 3296 13096 0
13088 3294 13093 0
13096 836 13088 0
13016 13097 13095 0
13095 3273 13016 0
13097 3296 13095 0
13016 215 13097 0
13100 13098 13099 0
13099 3297 13100 0
13098 3293 13099 0
13100 3278 13098 0
13091 13101 13099 0
13099 3293 13091 0
13101 3297 13099 0
13091 835 13101 0
13028 13090 13098 0
13098 3278 13028 0
13090 3293 13098 0
13028 830 13090 0
13102 13031 13100 0
13100 3297 13102 0
13031 3278 13100 0
13102 213 13031 0
13105 13103 13104 0
13104 3299 13105 0
13103 3295 13104 0
13105 3298 13103 0
13087 13106 13104 0
13104 3295 13087 0
13106 3299 13104 0
13087 836 13106 0
13107 13092 13103 0
13103 3298 13107 0
13092 3295 13103 0
13107 835 13092 0
13109 13108 13105 0
13105 3299 13109 0
13108 3298 13105 0
13109 50 13108 0
13112 13110 13111 0
13111 3302 13112 0
13110 3301 13111 0
13112 3300 13110 0
13114 13113 13111 0
13111 3301 13114 0
13113 3302 13111 0
13114 839 13113 0
13116 13115 13110 0
13110 3300 13116 0
13115 3301 13110 0
13116 838 13115 0
13118 13117 13112 0
13112 3302 13118 0
13117 3300 13112 0
13118 837 13117 0
13121 13119 13120 0
13120 3304 13121 0
13119 3301 13120 0
13121 3303 13119 0
13115 13122 13120 0
13120 3301 13115 0
13122 3304 13120 0
13115 838 13122 0
13123 13114 13119 0
13119 3303 13123 0
13114 3301 13119 0
13123 839 13114 0
13125 13124 13121 0
13121 3304 13125 0
13124 3303 13121 0
13125 195 13124 0
13128 13126 13127 0
13127 3306 13128 0
13126 3300 13127 0
13128 3305 13126 0
13117 13129 13127 0
13127 3300 13117 0
13129 3306 13127 0
13117 837 13129 0
13130 13116 13126 0
13126 3305 13130 0
13116 3300 13126 0
13130 838 13116 0
13132 13131 13128 0
13128 3306 13132 0
13131 3305 13128 0
13132 214 13131 0
13135 13133 13134 0
13134 3308 13135 0
13133 3302 13134 0
13135 3307 13133 0
13113 13136 13134 0
13134 3302 13113 0
13136 3308 13134 0
13113 839 13136 0
13137 13118 13133 0
13133 3307 13137 0
13118 3302 13133 0
13137 837 13118 0
13139 13138 13135 0
13135 3308 13139 0
13138 3307 13135 0
13139 216 13138 0
13142 13140 13141 0
13141 3311 13142 0
13140 3310 13141 0
13142 3309 13140 0
13144 13143 13141 0
13141 3310 13144 0
13143 3311 13141 0
13144 833 13143 0
13146 13145 13140 0
13140 3309 13146 0
13145 3310 13140 0
13146 838 13145 0
13148 13147 13142 0
13142 3311 13148 0
13147 3309 13142 0
13148 763 13147 0
13151 13149 13150 0
13150 3305 13151 0
13149 3310 13150 0
13151 3290 13149 0
13145 13130 13150 0
13150 3310 13145 0
13130 3305 13150 0
13145 838 13130 0
13075 13144 13149 0
13149 3290 13075 0
13144 3310 13149 0
13075 833 13144 0
13131 13076 13151 0
13151 3305 13131 0
13076 3290 13151 0
13131 214 13076 0
13154 13152 13153 0
13153 3017 13154 0
13152 3309 13153 0
13154 3304 13152 0
13147 11998 13153 0
13153 3309 13147 0
11998 3017 13153 0
13147 763 11998 0
13122 13146 13152 0
13152 3304 13122 0
13146 3309 13152 0
13122 838 13146 0
11999 13125 13154 0
13154 3017 11999 0
13125 3304 13154 0
11999 195 13125 0
13157 13155 13156 0
13156 3291 13157 0
13155 3311 13156 0
13157 3018 13155 0
13143 13081 13156 0
13156 3311 13143 0
13081 3291 13156 0
13143 833 13081 0
12006 13148 13155 0
13155 3018 12006 0
13148 3311 13155 0
12006 763 13148 0
13082 12007 13157 0
13157 3291 13082 0
12007 3018 13157 0
13082 53 12007 0
13160 13158 13159 0
13159 3314 13160 0
13158 3313 13159 0
13160 3312 13158 0
13162 13161 13159 0
13159 3313 13162 0
13161 3314 13159 0
13162 840 13161 0
13164 13163 13158 0
13158 3312 13164 0
13163 3313 13158 0
13164 837 13163 0
13166 13165 13160 0
13160 3314 13166 0
13165 3312 13160 0
13166 832 13165 0
13169 13167 13168 0
13168 3307 13169 0
13167 3313 13168 0
13169 3315 13167 0
13163 13137 13168 0
13168 3313 13163 0
13137 3307 13168 0
13163 837 13137 0
13170 13162 13167 0
13167 3315 13170 0
13162 3313 13167 0
13170 840 13162 0
13138 13171 13169 0
13169 3307 13138 0
13171 3315 13169 0
13138 216 13171 0
13174 13172 13173 0
13173 3282 13174 0
13172 3312 13173 0
13174 3306 13172 0
13165 13044 13173 0
13173 3312 13165 0
13044 3282 13173 0
13165 832 13044 0
13129 13164 13172 0
13172 3306 13129 0
13164 3312 13172 0
13129 837 13164 0
13045 13132 13174 0
13174 3282 13045 0
13132 3306 13174 0
13045 214 13132 0
13177 13175 13176 0
13176 3316 13177 0
13175 3314 13176 0
13177 3285 13175 0
13161 13178 13176 0
13176 3314 13161 0
13178 3316 13176 0
13161 840 13178 0
13054 13166 13175 0
13175 3285 13054 0
13166 3314 13175 0
13054 832 13166 0
13179 13057 13177 0
13177 3316 13179 0
13057 3285 13177 0
13179 57 13057 0
13182 13180 13181 0
13181 3319 13182 0
13180 3318 13181 0
13182 3317 13180 0
13184 13183 13181 0
13181 3318 13184 0
13183 3319 13181 0
13184 764 13183 0
13186 13185 13180 0
13180 3317 13186 0
13185 3318 13180 0
13186 839 13185 0
13188 13187 13182 0
13182 3319 13188 0
13187 3317 13182 0
13188 841 13187 0
13191 13189 13190 0
13190 3303 13191 0
13189 3318 13190 0
13191 3023 13189 0
13185 13123 13190 0
13190 3318 13185 0
13123 3303 13190 0
13185 839 13123 0
12025 13184 13189 0
13189 3023 12025 0
13184 3318 13189 0
12025 764 13184 0
13124 12026 13191 0
13191 3303 13124 0
12026 3023 13191 0
13124 195 12026 0
13194 13192 13193 0
13193 3320 13194 0
13192 3317 13193 0
13194 3308 13192 0
13187 13195 13193 0
13193 3317 13187 0
13195 3320 13193 0
13187 841 13195 0
13136 13186 13192 0
13192 3308 13136 0
13186 3317 13192 0
13136 839 13186 0
13196 13139 13194 0
13194 3320 13196 0
13139 3308 13194 0
13196 216 13139 0
13199 13197 13198 0
13198 3024 13199 0
13197 3319 13198 0
13199 3321 13197 0
13183 12031 13198 0
13198 3319 13183 0
12031 3024 13198 0
13183 764 12031 0
13200 13188 13197 0
13197 3321 13200 0
13188 3319 13197 0
13200 841 13188 0
12032 13201 13199 0
13199 3024 12032 0
13201 3321 13199 0
12032 16 13201 0
13204 13202 13203 0
13203 3324 13204 0
13202 3323 13203 0
13204 3322 13202 0
13206 13205 13203 0
13203 3323 13206 0
13205 3324 13203 0
13206 844 13205 0
13208 13207 13202 0
13202 3322 13208 0
13207 3323 13202 0
13208 843 13207 0
13210 13209 13204 0
13204 3324 13210 0
13209 3322 13204 0
13210 842 13209 0
13213 13211 13212 0
13212 3326 13213 0
13211 3323 13212 0
13213 3325 13211 0
13207 13214 13212 0
13212 3323 13207 0
13214 3326 13212 0
13207 843 13214 0
13215 13206 13211 0
13211 3325 13215 0
13206 3323 13211 0
13215 844 13206 0
13217 13216 13213 0
13213 3326 13217 0
13216 3325 13213 0
13217 188 13216 0
13220 13218 13219 0
13219 3328 13220 0
13218 3322 13219 0
13220 3327 13218 0
13209 13221 13219 0
13219 3322 13209 0
13221 3328 13219 0
13209 842 13221 0
13222 13208 13218 0
13218 3327 13222 0
13208 3322 13218 0
13222 843 13208 0
13224 13223 13220 0
13220 3328 13224 0
13223 3327 13220 0
13224 213 13223 0
13227 13225 13226 0
13226 3330 13227 0
13225 3324 13226 0
13227 3329 13225 0
13205 13228 13226 0
13226 3324 13205 0
13228 3330 13226 0
13205 844 13228 0
13229 13210 13225 0
13225 3329 13229 0
13210 3324 13225 0
13229 842 13210 0
13231 13230 13227 0
13227 3330 13231 0
13230 3329 13227 0
13231 200 13230 0
13234 13232 13233 0
13233 3333 13234 0
13232 3332 13233 0
13234 3331 13232 0
13236 13235 13233 0
13233 3332 13236 0
13235 3333 13233 0
13236 835 13235 0
13238 13237 13232 0
13232 3331 13238 0
13237 3332 13232 0
13238 843 13237 0
13240 13239 13234 0
13234 3333 13240 0
13239 3331 13234 0
13240 736 13239 0
13243 13241 13242 0
13242 3327 13243 0
13241 3332 13242 0
13243 3297 13241 0
13237 13222 13242 0
13242 3332 13237 0
13222 3327 13242 0
13237 843 13222 0
13101 13236 13241 0
13241 3297 13101 0
13236 3332 13241 0
13101 835 13236 0
13223 13102 13243 0
13243 3327 13223 0
13102 3297 13243 0
13223 213 13102 0
13246 13244 13245 0
13245 2915 13246 0
13244 3331 13245 0
13246 3326 13244 0
13239 11602 13245 0
13245 3331 13239 0
11602 2915 13245 0
13239 736 11602 0
13214 13238 13244 0
13244 3326 13214 0
13238 3331 13244 0
13214 843 13238 0
11603 13217 13246 0
13246 2915 11603 0
13217 3326 13246 0
11603 188 13217 0
13249 13247 13248 0
13248 3298 13249 0
13247 3333 13248 0
13249 2916 13247 0
13235 13107 13248 0
13248 3333 13235 0
13107 3298 13248 0
13235 835 13107 0
11610 13240 13247 0
13247 2916 11610 0
13240 3333 13247 0
11610 736 13240 0
13108 11611 13249 0
13249 3298 13108 0
11611 2916 13249 0
13108 50 11611 0
13252 13250 13251 0
13251 3336 13252 0
13250 3335 13251 0
13252 3334 13250 0
13254 13253 13251 0
13251 3335 13254 0
13253 3336 13251 0
13254 776 13253 0
13256 13255 13250 0
13250 3334 13256 0
13255 3335 13250 0
13256 842 13255 0
13258 13257 13252 0
13252 3336 13258 0
13257 3334 13252 0
13258 834 13257 0
13261 13259 13260 0
13260 3329 13261 0
13259 3335 13260 0
13261 3064 13259 0
13255 13229 13260 0
13260 3335 13255 0
13229 3329 13260 0
13255 842 13229 0
12179 13254 13259 0
13259 3064 12179 0
13254 3335 13259 0
12179 776 13254 0
13230 12180 13261 0
13261 3329 13230 0
12180 3064 13261 0
13230 200 12180 0
13264 13262 13263 0
13263 3289 13264 0
13262 3334 13263 0
13264 3328 13262 0
13257 13070 13263 0
13263 3334 13257 0
13070 3289 13263 0
13257 834 13070 0
13221 13256 13262 0
13262 3328 13221 0
13256 3334 13262 0
13221 842 13256 0
13071 13224 13264 0
13264 3289 13071 0
13224 3328 13264 0
13071 213 13224 0
13267 13265 13266 0
13266 3065 13267 0
13265 3336 13266 0
13267 3292 13265 0
13253 12184 13266 0
13266 3336 13253 0
12184 3065 13266 0
13253 776 12184 0
13080 13258 13265 0
13265 3292 13080 0
13258 3336 13265 0
13080 834 13258 0
12185 13083 13267 0
13267 3065 12185 0
13083 3292 13267 0
12185 53 13083 0
13270 13268 13269 0
13269 3339 13270 0
13268 3338 13269 0
13270 3337 13268 0
13272 13271 13269 0
13269 3338 13272 0
13271 3339 13269 0
13272 737 13271 0
13274 13273 13268 0
13268 3337 13274 0
13273 3338 13268 0
13274 844 13273 0
13276 13275 13270 0
13270 3339 13276 0
13275 3337 13270 0
13276 779 13275 0
13279 13277 13278 0
13278 3325 13279 0
13277 3338 13278 0
13279 2920 13277 0
13273 13215 13278 0
13278 3338 13273 0
13215 3325 13278 0
13273 844 13215 0
11627 13272 13277 0
13277 2920 11627 0
13272 3338 13277 0
11627 737 13272 0
13216 11628 13279 0
13279 3325 13216 0
11628 2920 13279 0
13216 188 11628 0
13282 13280 13281 0
13281 3074 13282 0
13280 3337 13281 0
13282 3330 13280 0
13275 12220 13281 0
13281 3337 13275 0
12220 3074 13281 0
13275 779 12220 0
13228 13274 13280 0
13280 3330 13228 0
13274 3337 13280 0
13228 844 13274 0
12221 13231 13282 0
13282 3074 12221 0
13231 3330 13282 0
12221 200 13231 0
13285 13283 13284 0
13284 2921 13285 0
13283 3339 13284 0
13285 3077 13283 0
13271 11632 13284 0
13284 3339 13271 0
11632 2921 13284 0
13271 737 11632 0
12230 13276 13283 0
13283 3077 12230 0
13276 3339 13283 0
12230 779 13276 0
11633 12233 13285 0
13285 2921 11633 0
12233 3077 13285 0
11633 14 12233 0
13288 13286 13287 0
13287 3342 13288 0
13286 3341 13287 0
13288 3340 13286 0
13290 13289 13287 0
13287 3341 13290 0
13289 3342 13287 0
13290 847 13289 0
13292 13291 13286 0
13286 3340 13292 0
13291 3341 13286 0
13292 846 13291 0
13294 13293 13288 0
13288 3342 13294 0
13293 3340 13288 0
13294 845 13293 0
13297 13295 13296 0
13296 3344 13297 0
13295 3341 13296 0
13297 3343 13295 0
13291 13298 13296 0
13296 3341 13291 0
13298 3344 13296 0
13291 846 13298 0
13299 13290 13295 0
13295 3343 13299 0
13290 3341 13295 0
13299 847 13290 0
13301 13300 13297 0
13297 3344 13301 0
13300 3343 13297 0
13301 217 13300 0
13304 13302 13303 0
13303 3346 13304 0
13302 3340 13303 0
13304 3345 13302 0
13293 13305 13303 0
13303 3340 13293 0
13305 3346 13303 0
13293 845 13305 0
13306 13292 13302 0
13302 3345 13306 0
13292 3340 13302 0
13306 846 13292 0
13308 13307 13304 0
13304 3346 13308 0
13307 3345 13304 0
13308 215 13307 0
13311 13309 13310 0
13310 3348 13311 0
13309 3342 13310 0
13311 3347 13309 0
13289 13312 13310 0
13310 3342 13289 0
13312 3348 13310 0
13289 847 13312 0
13313 13294 13309 0
13309 3347 13313 0
13294 3342 13309 0
13313 845 13294 0
13315 13314 13311 0
13311 3348 13315 0
13314 3347 13311 0
13315 191 13314 0
13318 13316 13317 0
13317 3351 13318 0
13316 3350 13317 0
13318 3349 13316 0
13320 13319 13317 0
13317 3350 13320 0
13319 3351 13317 0
13320 831 13319 0
13322 13321 13316 0
13316 3349 13322 0
13321 3350 13316 0
13322 846 13321 0
13324 13323 13318 0
13318 3351 13324 0
13323 3349 13318 0
13324 848 13323 0
13327 13325 13326 0
13326 3345 13327 0
13325 3350 13326 0
13327 3283 13325 0
13321 13306 13326 0
13326 3350 13321 0
13306 3345 13326 0
13321 846 13306 0
13049 13320 13325 0
13325 3283 13049 0
13320 3350 13325 0
13049 831 13320 0
13307 13050 13327 0
13327 3345 13307 0
13050 3283 13327 0
13307 215 13050 0
13330 13328 13329 0
13329 3352 13330 0
13328 3349 13329 0
13330 3344 13328 0
13323 13331 13329 0
13329 3349 13323 0
13331 3352 13329 0
13323 848 13331 0
13298 13322 13328 0
13328 3344 13298 0
13322 3349 13328 0
13298 846 13322 0
13332 13301 13330 0
13330 3352 13332 0
13301 3344 13330 0
13332 217 13301 0
13335 13333 13334 0
13334 3284 13335 0
13333 3351 13334 0
13335 3353 13333 0
13319 13055 13334 0
13334 3351 13319 0
13055 3284 13334 0
13319 831 13055 0
13336 13324 13333 0
13333 3353 13336 0
13324 3351 13333 0
13336 848 13324 0
13056 13337 13335 0
13335 3284 13056 0
13337 3353 13335 0
13056 57 13337 0
13340 13338 13339 0
13339 3356 13340 0
13338 3355 13339 0
13340 3354 13338 0
13342 13341 13339 0
13339 3355 13342 0
13341 3356 13339 0
13342 746 13341 0
13344 13343 13338 0
13338 3354 13344 0
13343 3355 13338 0
13344 845 13343 0
13346 13345 13340 0
13340 3356 13346 0
13345 3354 13340 0
13346 836 13345 0
13349 13347 13348 0
13348 3347 13349 0
13347 3355 13348 0
13349 2956 13347 0
13343 13313 13348 0
13348 3355 13343 0
13313 3347 13348 0
13343 845 13313 0
11771 13342 13347 0
13347 2956 11771 0
13342 3355 13347 0
11771 746 13342 0
13314 11772 13349 0
13349 3347 13314 0
11772 2956 13349 0
13314 191 11772 0
13352 13350 13351 0
13351 3296 13352 0
13350 3354 13351 0
13352 3346 13350 0
13345 13096 13351 0
13351 3354 13345 0
13096 3296 13351 0
13345 836 13096 0
13305 13344 13350 0
13350 3346 13305 0
13344 3354 13350 0
13305 845 13344 0
13097 13308 13352 0
13352 3296 13097 0
13308 3346 13352 0
13097 215 13308 0
13355 13353 13354 0
13354 2957 13355 0
13353 3356 13354 0
13355 3299 13353 0
13341 11776 13354 0
13354 3356 13341 0
11776 2957 13354 0
13341 746 11776 0
13106 13346 13353 0
13353 3299 13106 0
13346 3356 13353 0
13106 836 13346 0
11777 13109 13355 0
13355 2957 11777 0
13109 3299 13355 0
11777 50 13109 0
13358 13356 13357 0
13357 3359 13358 0
13356 3358 13357 0
13358 3357 13356 0
13360 13359 13357 0
13357 3358 13360 0
13359 3359 13357 0
13360 849 13359 0
13362 13361 13356 0
13356 3357 13362 0
13361 3358 13356 0
13362 847 13361 0
13364 13363 13358 0
13358 3359 13364 0
13363 3357 13358 0
13364 749 13363 0
13367 13365 13366 0
13366 3343 13367 0
13365 3358 13366 0
13367 3360 13365 0
13361 13299 13366 0
13366 3358 13361 0
13299 3343 13366 0
13361 847 13299 0
13368 13360 13365 0
13365 3360 13368 0
13360 3358 13365 0
13368 849 13360 0
13300 13369 13367 0
13367 3343 13300 0
13369 3360 13367 0
13300 217 13369 0
13372 13370 13371 0
13371 2966 13372 0
13370 3357 13371 0
13372 3348 13370 0
13363 11812 13371 0
13371 3357 13363 0
11812 2966 13371 0
13363 749 11812 0
13312 13362 13370 0
13370 3348 13312 0
13362 3357 13370 0
13312 847 13362 0
11813 13315 13372 0
13372 2966 11813 0
13315 3348 13372 0
11813 191 13315 0
13375 13373 13374 0
13374 3361 13375 0
13373 3359 13374 0
13375 2969 13373 0
13359 13376 13374 0
13374 3359 13359 0
13376 3361 13374 0
13359 849 13376 0
11822 13364 13373 0
13373 2969 11822 0
13364 3359 13373 0
11822 749 13364 0
13377 11825 13375 0
13375 3361 13377 0
11825 2969 13375 0
