#!ascii from Mesh
2562 5120
702 48 701 0
704 703 698 0
698 178 704 0
703 179 698 0
704 42 703 0
706 705 700 0
700 180 706 0
705 178 700 0
706 47 705 0
709 707 708 0
708 169 709 0
707 179 708 0
709 181 707 0
703 669 708 0
708 179 703 0
669 169 708 0
703 42 669 0
710 702 707 0
707 181 710 0
702 179 707 0
710 48 702 0
670 711 709 0
709 169 670 0
711 181 709 0
670 12 711 0
714 712 713 0
713 182 714 0
712 178 713 0
714 168 712 0
705 715 713 0
713 178 705 0
715 182 713 0
705 47 715 0
661 704 712 0
712 168 661 0
704 178 712 0
661 42 704 0
716 664 714 0
714 182 716 0
664 168 714 0
716 13 664 0
719 717 718 0
718 184 719 0
717 180 718 0
719 183 717 0
701 720 718 0
718 180 701 0
720 184 718 0
701 48 720 0
721 706 717 0
717 183 721 0
706 180 717 0
721 47 706 0
723 722 719 0
719 184 723 0
722 183 719 0
723 8 722 0
726 724 725 0
725 187 726 0
724 186 725 0
726 185 724 0
728 727 725 0
725 186 728 0
727 187 725 0
728 50 727 0
730 729 724 0
724 185 730 0
729 186 724 0
730 44 729 0
732 731 726 0
726 187 732 0
731 185 726 0
732 49 731 0
735 733 734 0
734 165 735 0
733 186 734 0
735 188 733 0
729 655 734 0
734 186 729 0
655 165 734 0
729 44 655 0
736 728 733 0
733 188 736 0
728 186 733 0
736 50 728 0
656 737 735 0
735 165 656 0
737 188 735 0
656 14 737 0
740 738 739 0
739 189 740 0
738 185 739 0
740 170 738 0
731 741 739 0
739 185 731 0
741 189 739 0
731 49 741 0
668 730 738 0
738 170 668 0
730 185 738 0
668 44 730 0
742 671 740 0
740 189 742 0
671 170 740 0
742 12 671 0
745 743 744 0
744 191 745 0
743 187 744 0
745 190 743 0
727 746 744 0
744 187 727 0
746 191 744 0
727 50 746 0
747 732 743 0
743 190 747 0
732 187 743 0
747 49 732 0
749 748 745 0
745 191 749 0
748 190 745 0
749 4 748 0
752 750 751 0
751 194 752 0
750 193 751 0
752 192 750 0
754 753 751 0
751 193 754 0
753 194 751 0
754 53 753 0
756 755 750 0
750 192 756 0
755 193 750 0
756 52 755 0
758 757 752 0
752 194 758 0
757 192 752 0
758 51 757 0
761 759 760 0
760 196 761 0
759 193 760 0
761 195 759 0
755 762 760 0
760 193 755 0
762 196 760 0
755 52 762 0
763 754 759 0
759 195 763 0
754 193 759 0
763 53 754 0
765 764 761 0
761 196 765 0
764 195 761 0
765 16 764 0
768 766 767 0
767 198 768 0
766 192 767 0
768 197 766 0
757 769 767 0
767 192 757 0
769 198 767 0
757 51 769 0
770 756 766 0
766 197 770 0
756 192 766 0
770 52 756 0
772 771 768 0
768 198 772 0
771 197 768 0
772 15 771 0
775 773 774 0
774 200 775 0
773 194 774 0
775 199 773 0
753 776 774 0
774 194 753 0
776 200 774 0
753 53 776 0
777 758 773 0
773 199 777 0
758 194 773 0
777 51 758 0
779 778 775 0
775 200 779 0
778 199 775 0
779 14 778 0
782 780 781 0
781 203 782 0
780 202 781 0
782 201 780 0
784 783 781 0
781 202 784 0
783 203 781 0
784 55 783 0
786 785 780 0
780 201 786 0
785 202 780 0
786 52 785 0
788 787 782 0
782 203 788 0
787 201 782 0
788 54 787 0
791 789 790 0
790 197 791 0
789 202 790 0
791 204 789 0
785 770 790 0
790 202 785 0
770 197 790 0
785 52 770 0
792 784 789 0
789 204 792 0
784 202 789 0
792 55 784 0
771 793 791 0
791 197 771 0
793 204 791 0
771 15 793 0
796 794 795 0
795 205 796 0
794 201 795 0
796 196 794 0
787 797 795 0
795 201 787 0
797 205 795 0
787 54 797 0
762 786 794 0
794 196 762 0
786 201 794 0
762 52 786 0
798 765 796 0
796 205 798 0
765 196 796 0
798 16 765 0
801 799 800 0
800 207 801 0
799 203 800 0
801 206 799 0
783 802 800 0
800 203 783 0
802 207 800 0
783 55 802 0
803 788 799 0
799 206 803 0
788 203 799 0
803 54 788 0
805 804 801 0
801 207 805 0
804 206 801 0
805 9 804 0
808 806 807 0
807 210 808 0
806 209 807 0
808 208 806 0
810 809 807 0
807 209 810 0
809 210 807 0
810 45 809 0
812 811 806 0
806 208 812 0
811 209 806 0
812 51 811 0
814 813 808 0
808 210 814 0
813 208 808 0
814 56 813 0
817 815 816 0
816 199 817 0
815 209 816 0
817 175 815 0
811 777 816 0
816 209 811 0
777 199 816 0
811 51 777 0
689 810 815 0
815 175 689 0
810 209 815 0
689 45 810 0
778 690 817 0
817 199 778 0
690 175 817 0
778 14 690 0
820 818 819 0
819 211 820 0
818 208 819 0
820 198 818 0
813 821 819 0
819 208 813 0
821 211 819 0
813 56 821 0
769 812 818 0
818 198 769 0
812 208 818 0
769 51 812 0
822 772 820 0
820 211 822 0
772 198 820 0
822 15 772 0
825 823 824 0
824 176 825 0
823 210 824 0
825 212 823 0
809 695 824 0
824 210 809 0
695 176 824 0
809 45 695 0
826 814 823 0
823 212 826 0
814 210 823 0
826 56 814 0
696 827 825 0
825 176 696 0
827 212 825 0
696 7 827 0
830 828 829 0
829 215 830 0
828 214 829 0
830 213 828 0
832 831 829 0
829 214 832 0
831 215 829 0
832 57 831 0
834 833 828 0
828 213 834 0
833 214 828 0
834 53 833 0
836 835 830 0
830 215 836 0
835 213 830 0
836 50 835 0
839 837 838 0
838 195 839 0
837 214 838 0
839 216 837 0
833 763 838 0
838 214 833 0
763 195 838 0
833 53 763 0
840 832 837 0
837 216 840 0
832 214 837 0
840 57 832 0
764 841 839 0
839 195 764 0
841 216 839 0
764 16 841 0
844 842 843 0
843 188 844 0
842 213 843 0
844 200 842 0
835 736 843 0
843 213 835 0
736 188 843 0
835 50 736 0
776 834 842 0
842 200 776 0
834 213 842 0
776 53 834 0
737 779 844 0
844 188 737 0
779 200 844 0
737 14 779 0
847 845 846 0
846 217 847 0
845 215 846 0
847 191 845 0
831 848 846 0
846 215 831 0
848 217 846 0
831 57 848 0
746 836 845 0
845 191 746 0
836 215 845 0
746 50 836 0
849 749 847 0
847 217 849 0
749 191 847 0
849 4 749 0
852 850 851 0
851 220 852 0
850 219 851 0
852 218 850 0
854 853 851 0
851 219 854 0
853 220 851 0
854 60 853 0
856 855 850 0
850 218 856 0
855 219 850 0
856 59 855 0
858 857 852 0
852 220 858 0
857 218 852 0
858 58 857 0
861 859 860 0
860 222 861 0
859 219 860 0
861 221 859 0
855 862 860 0
860 219 855 0
862 222 860 0
855 59 862 0
863 854 859 0
859 221 863 0
854 219 859 0
863 60 854 0
865 864 861 0
861 222 865 0
864 221 861 0
865 19 864 0
868 866 867 0
867 224 868 0
866 218 867 0
868 223 866 0
857 869 867 0
867 218 857 0
869 224 867 0
857 58 869 0
870 856 866 0
866 223 870 0
856 218 866 0
870 59 856 0
872 871 868 0
868 224 872 0
871 223 868 0
872 18 871 0
875 873 874 0
874 226 875 0
873 220 874 0
875 225 873 0
853 876 874 0
874 220 853 0
876 226 874 0
853 60 876 0
877 858 873 0
873 225 877 0
858 220 873 0
877 58 858 0
879 878 875 0
875 226 879 0
878 225 875 0
879 17 878 0
882 880 881 0
881 229 882 0
880 228 881 0
882 227 880 0
884 883 881 0
881 228 884 0
883 229 881 0
884 62 883 0
886 885 880 0
880 227 886 0
885 228 880 0
886 59 885 0
888 887 882 0
882 229 888 0
887 227 882 0
888 61 887 0
891 889 890 0
890 223 891 0
889 228 890 0
891 230 889 0
885 870 890 0
890 228 885 0
870 223 890 0
885 59 870 0
892 884 889 0
889 230 892 0
884 228 889 0
892 62 884 0
871 893 891 0
891 223 871 0
893 230 891 0
871 18 893 0
896 894 895 0
895 231 896 0
894 227 895 0
896 222 894 0
887 897 895 0
895 227 887 0
897 231 895 0
887 61 897 0
862 886 894 0
894 222 862 0
886 227 894 0
862 59 886 0
898 865 896 0
896 231 898 0
865 222 896 0
898 19 865 0
901 899 900 0
900 233 901 0
899 229 900 0
901 232 899 0
883 902 900 0
900 229 883 0
902 233 900 0
883 62 902 0
903 888 899 0
899 232 903 0
888 229 899 0
903 61 888 0
905 904 901 0
901 233 905 0
904 232 901 0
905 11 904 0
908 906 907 0
907 236 908 0
906 235 907 0
908 234 906 0
910 909 907 0
907 235 910 0
909 236 907 0
910 64 909 0
912 911 906 0
906 234 912 0
911 235 906 0
912 58 911 0
914 913 908 0
908 236 914 0
913 234 908 0
914 63 913 0
917 915 916 0
916 225 917 0
915 235 916 0
917 237 915 0
911 877 916 0
916 235 911 0
877 225 916 0
911 58 877 0
918 910 915 0
915 237 918 0
910 235 915 0
918 64 910 0
878 919 917 0
917 225 878 0
919 237 917 0
878 17 919 0
922 920 921 0
921 238 922 0
920 234 921 0
922 224 920 0
913 923 921 0
921 234 913 0
923 238 921 0
913 63 923 0
869 912 920 0
920 224 869 0
912 234 920 0
869 58 912 0
924 872 922 0
922 238 924 0
872 224 922 0
924 18 872 0
927 925 926 0
926 240 927 0
925 236 926 0
927 239 925 0
909 928 926 0
926 236 909 0
928 240 926 0
909 64 928 0
929 914 925 0
925 239 929 0
914 236 925 0
929 63 914 0
931 930 927 0
927 240 931 0
930 239 927 0
931 6 930 0
934 932 933 0
933 243 934 0
932 242 933 0
934 241 932 0
936 935 933 0
933 242 936 0
935 243 933 0
936 66 935 0
938 937 932 0
932 241 938 0
937 242 932 0
938 60 937 0
940 939 934 0
934 243 940 0
939 241 934 0
940 65 939 0
943 941 942 0
942 221 943 0
941 242 942 0
943 244 941 0
937 863 942 0
942 242 937 0
863 221 942 0
937 60 863 0
944 936 941 0
941 244 944 0
936 242 941 0
944 66 936 0
864 945 943 0
943 221 864 0
945 244 943 0
864 19 945 0
948 946 947 0
947 245 948 0
946 241 947 0
948 226 946 0
939 949 947 0
947 241 939 0
949 245 947 0
939 65 949 0
876 938 946 0
946 226 876 0
938 241 946 0
876 60 938 0
950 879 948 0
948 245 950 0
879 226 948 0
950 17 879 0
953 951 952 0
952 247 953 0
951 243 952 0
953 246 951 0
935 954 952 0
952 243 935 0
954 247 952 0
935 66 954 0
955 940 951 0
951 246 955 0
940 243 951 0
955 65 940 0
957 956 953 0
953 247 957 0
956 246 953 0
957 5 956 0
960 958 959 0
959 250 960 0
958 249 959 0
960 248 958 0
962 961 959 0
959 249 962 0
961 250 959 0
962 69 961 0
964 963 958 0
958 248 964 0
963 249 958 0
964 68 963 0
966 965 960 0
960 250 966 0
965 248 960 0
966 67 965 0
969 967 968 0
968 252 969 0
967 249 968 0
969 251 967 0
963 970 968 0
968 249 963 0
970 252 968 0
963 68 970 0
971 962 967 0
967 251 971 0
962 249 967 0
971 69 962 0
973 972 969 0
969 252 973 0
972 251 969 0
973 17 972 0
976 974 975 0
975 254 976 0
974 248 975 0
976 253 974 0
965 977 975 0
975 248 965 0
977 254 975 0
965 67 977 0
978 964 974 0
974 253 978 0
964 248 974 0
978 68 964 0
980 979 976 0
976 254 980 0
979 253 976 0
980 21 979 0
983 981 982 0
982 256 983 0
981 250 982 0
983 255 981 0
961 984 982 0
982 250 961 0
984 256 982 0
961 69 984 0
985 966 981 0
981 255 985 0
966 250 981 0
985 67 966 0
987 986 983 0
983 256 987 0
986 255 983 0
987 20 986 0
990 988 989 0
989 259 990 0
988 258 989 0
990 257 988 0
992 991 989 0
989 258 992 0
991 259 989 0
992 70 991 0
994 993 988 0
988 257 994 0
993 258 988 0
994 68 993 0
996 995 990 0
990 259 996 0
995 257 990 0
996 64 995 0
999 997 998 0
998 253 999 0
997 258 998 0
999 260 997 0
993 978 998 0
998 258 993 0
978 253 998 0
993 68 978 0
1000 992 997 0
997 260 1000 0
992 258 997 0
1000 70 992 0
979 1001 999 0
999 253 979 0
1001 260 999 0
979 21 1001 0
1004 1002 1003 0
1003 237 1004 0
1002 257 1003 0
1004 252 1002 0
995 918 1003 0
1003 257 995 0
918 237 1003 0
995 64 918 0
970 994 1002 0
1002 252 970 0
994 257 1002 0
970 68 994 0
919 973 1004 0
1004 237 919 0
973 252 1004 0
919 17 973 0
1007 1005 1006 0
1006 261 1007 0
1005 259 1006 0
1007 240 1005 0
991 1008 1006 0
1006 259 991 0
1008 261 1006 0
991 70 1008 0
928 996 1005 0
1005 240 928 0
996 259 1005 0
928 64 996 0
1009 931 1007 0
1007 261 1009 0
931 240 1007 0
1009 6 931 0
1012 1010 1011 0
1011 264 1012 0
1010 263 1011 0
1012 262 1010 0
1014 1013 1011 0
1011 263 1014 0
1013 264 1011 0
1014 72 1013 0
1016 1015 1010 0
1010 262 1016 0
1015 263 1010 0
1016 67 1015 0
1018 1017 1012 0
1012 264 1018 0
1017 262 1012 0
1018 71 1017 0
1021 1019 1020 0
1020 255 1021 0
1019 263 1020 0
1021 265 1019 0
1015 985 1020 0
1020 263 1015 0
985 255 1020 0
1015 67 985 0
1022 1014 1019 0
1019 265 1022 0
1014 263 1019 0
1022 72 1014 0
986 1023 1021 0
1021 255 986 0
1023 265 1021 0
986 20 1023 0
1026 1024 1025 0
1025 266 1026 0
1024 262 1025 0
1026 254 1024 0
1017 1027 1025 0
1025 262 1017 0
1027 266 1025 0
1017 71 1027 0
977 1016 1024 0
1024 254 977 0
1016 262 1024 0
977 67 1016 0
1028 980 1026 0
1026 266 1028 0
980 254 1026 0
1028 21 980 0
1031 1029 1030 0
1030 268 1031 0
1029 264 1030 0
1031 267 1029 0
1013 1032 1030 0
1030 264 1013 0
1032 268 1030 0
1013 72 1032 0
1033 1018 1029 0
1029 267 1033 0
1018 264 1029 0
1033 71 1018 0
1035 1034 1031 0
1031 268 1035 0
1034 267 1031 0
1035 10 1034 0
1038 1036 1037 0
1037 271 1038 0
1036 270 1037 0
1038 269 1036 0
1040 1039 1037 0
1037 270 1040 0
1039 271 1037 0
1040 65 1039 0
1042 1041 1036 0
1036 269 1042 0
1041 270 1036 0
1042 69 1041 0
1044 1043 1038 0
1038 271 1044 0
1043 269 1038 0
1044 73 1043 0
1047 1045 1046 0
1046 251 1047 0
1045 270 1046 0
1047 245 1045 0
1041 971 1046 0
1046 270 1041 0
971 251 1046 0
1041 69 971 0
949 1040 1045 0
1045 245 949 0
1040 270 1045 0
949 65 1040 0
972 950 1047 0
1047 251 972 0
950 245 1047 0
972 17 950 0
1050 1048 1049 0
1049 272 1050 0
1048 269 1049 0
1050 256 1048 0
1043 1051 1049 0
1049 269 1043 0
1051 272 1049 0
1043 73 1051 0
984 1042 1048 0
1048 256 984 0
1042 269 1048 0
984 69 1042 0
1052 987 1050 0
1050 272 1052 0
987 256 1050 0
1052 20 987 0
1055 1053 1054 0
1054 246 1055 0
1053 271 1054 0
1055 273 1053 0
1039 955 1054 0
1054 271 1039 0
955 246 1054 0
1039 65 955 0
1056 1044 1053 0
1053 273 1056 0
1044 271 1053 0
1056 73 1044 0
956 1057 1055 0
1055 246 956 0
1057 273 1055 0
956 5 1057 0
1060 1058 1059 0
1059 276 1060 0
1058 275 1059 0
1060 274 1058 0
1062 1061 1059 0
1059 275 1062 0
1061 276 1059 0
1062 76 1061 0
1064 1063 1058 0
1058 274 1064 0
1063 275 1058 0
1064 75 1063 0
1066 1065 1060 0
1060 276 1066 0
1065 274 1060 0
1066 74 1065 0
1069 1067 1068 0
1068 278 1069 0
1067 275 1068 0
1069 277 1067 0
1063 1070 1068 0
1068 275 1063 0
1070 278 1068 0
1063 75 1070 0
1071 1062 1067 0
1067 277 1071 0
1062 275 1067 0
1071 76 1062 0
1073 1072 1069 0
1069 278 1073 0
1072 277 1069 0
1073 24 1072 0
1076 1074 1075 0
1075 280 1076 0
1074 274 1075 0
1076 279 1074 0
1065 1077 1075 0
1075 274 1065 0
1077 280 1075 0
1065 74 1077 0
1078 1064 1074 0
1074 279 1078 0
1064 274 1074 0
1078 75 1064 0
1080 1079 1076 0
1076 280 1080 0
1079 279 1076 0
1080 23 1079 0
1083 1081 1082 0
1082 282 1083 0
1081 276 1082 0
1083 281 1081 0
1061 1084 1082 0
1082 276 1061 0
1084 282 1082 0
1061 76 1084 0
1085 1066 1081 0
1081 281 1085 0
1066 276 1081 0
1085 74 1066 0
1087 1086 1083 0
1083 282 1087 0
1086 281 1083 0
1087 22 1086 0
1090 1088 1089 0
1089 285 1090 0
1088 284 1089 0
1090 283 1088 0
1092 1091 1089 0
1089 284 1092 0
1091 285 1089 0
1092 78 1091 0
1094 1093 1088 0
1088 283 1094 0
1093 284 1088 0
1094 75 1093 0
1096 1095 1090 0
1090 285 1096 0
1095 283 1090 0
1096 77 1095 0
1099 1097 1098 0
1098 279 1099 0
1097 284 1098 0
1099 286 1097 0
1093 1078 1098 0
1098 284 1093 0
1078 279 1098 0
1093 75 1078 0
1100 1092 1097 0
1097 286 1100 0
1092 284 1097 0
1100 78 1092 0
1079 1101 1099 0
1099 279 1079 0
1101 286 1099 0
1079 23 1101 0
1104 1102 1103 0
1103 287 1104 0
1102 283 1103 0
1104 278 1102 0
1095 1105 1103 0
1103 283 1095 0
1105 287 1103 0
1095 77 1105 0
1070 1094 1102 0
1102 278 1070 0
1094 283 1102 0
1070 75 1094 0
1106 1073 1104 0
1104 287 1106 0
1073 278 1104 0
1106 24 1073 0
1109 1107 1108 0
1108 289 1109 0
1107 285 1108 0
1109 288 1107 0
1091 1110 1108 0
1108 285 1091 0
1110 289 1108 0
1091 78 1110 0
1111 1096 1107 0
1107 288 1111 0
1096 285 1107 0
1111 77 1096 0
1113 1112 1109 0
1109 289 1113 0
1112 288 1109 0
1113 3 1112 0
1116 1114 1115 0
1115 292 1116 0
1114 291 1115 0
1116 290 1114 0
1118 1117 1115 0
1115 291 1118 0
1117 292 1115 0
1118 80 1117 0
1120 1119 1114 0
1114 290 1120 0
1119 291 1114 0
1120 74 1119 0
1122 1121 1116 0
1116 292 1122 0
1121 290 1116 0
1122 79 1121 0
1125 1123 1124 0
1124 281 1125 0
1123 291 1124 0
1125 293 1123 0
1119 1085 1124 0
1124 291 1119 0
1085 281 1124 0
1119 74 1085 0
1126 1118 1123 0
1123 293 1126 0
1118 291 1123 0
1126 80 1118 0
1086 1127 1125 0
1125 281 1086 0
1127 293 1125 0
1086 22 1127 0
1130 1128 1129 0
1129 294 1130 0
1128 290 1129 0
1130 280 1128 0
1121 1131 1129 0
1129 290 1121 0
1131 294 1129 0
1121 79 1131 0
1077 1120 1128 0
1128 280 1077 0
1120 290 1128 0
1077 74 1120 0
1132 1080 1130 0
1130 294 1132 0
1080 280 1130 0
1132 23 1080 0
1135 1133 1134 0
1134 296 1135 0
1133 292 1134 0
1135 295 1133 0
1117 1136 1134 0
1134 292 1117 0
1136 296 1134 0
1117 80 1136 0
1137 1122 1133 0
1133 295 1137 0
1122 292 1133 0
1137 79 1122 0
1139 1138 1135 0
1135 296 1139 0
1138 295 1135 0
1139 4 1138 0
1142 1140 1141 0
1141 299 1142 0
1140 298 1141 0
1142 297 1140 0
1144 1143 1141 0
1141 298 1144 0
1143 299 1141 0
1144 82 1143 0
1146 1145 1140 0
1140 297 1146 0
1145 298 1140 0
1146 76 1145 0
1148 1147 1142 0
1142 299 1148 0
1147 297 1142 0
1148 81 1147 0
1151 1149 1150 0
1150 277 1151 0
1149 298 1150 0
1151 300 1149 0
1145 1071 1150 0
1150 298 1145 0
1071 277 1150 0
1145 76 1071 0
1152 1144 1149 0
1149 300 1152 0
1144 298 1149 0
1152 82 1144 0
1072 1153 1151 0
1151 277 1072 0
1153 300 1151 0
1072 24 1153 0
1156 1154 1155 0
1155 301 1156 0
1154 297 1155 0
1156 282 1154 0
1147 1157 1155 0
1155 297 1147 0
1157 301 1155 0
1147 81 1157 0
1084 1146 1154 0
1154 282 1084 0
1146 297 1154 0
1084 76 1146 0
1158 1087 1156 0
1156 301 1158 0
1087 282 1156 0
1158 22 1087 0
1161 1159 1160 0
1160 303 1161 0
1159 299 1160 0
1161 302 1159 0
1143 1162 1160 0
1160 299 1143 0
1162 303 1160 0
1143 82 1162 0
1163 1148 1159 0
1159 302 1163 0
1148 299 1159 0
1163 81 1148 0
1165 1164 1161 0
1161 303 1165 0
1164 302 1161 0
1165 0 1164 0
1168 1166 1167 0
1167 306 1168 0
1166 305 1167 0
1168 304 1166 0
1170 1169 1167 0
1167 305 1170 0
1169 306 1167 0
1170 85 1169 0
1172 1171 1166 0
1166 304 1172 0
1171 305 1166 0
1172 84 1171 0
1174 1173 1168 0
1168 306 1174 0
1173 304 1168 0
1174 83 1173 0
1177 1175 1176 0
1176 308 1177 0
1175 305 1176 0
1177 307 1175 0
1171 1178 1176 0
1176 305 1171 0
1178 308 1176 0
1171 84 1178 0
1179 1170 1175 0
1175 307 1179 0
1170 305 1175 0
1179 85 1170 0
1181 1180 1177 0
1177 308 1181 0
1180 307 1177 0
1181 26 1180 0
1184 1182 1183 0
1183 310 1184 0
1182 304 1183 0
1184 309 1182 0
1173 1185 1183 0
1183 304 1173 0
1185 310 1183 0
1173 83 1185 0
1186 1172 1182 0
1182 309 1186 0
1172 304 1182 0
1186 84 1172 0
1188 1187 1184 0
1184 310 1188 0
1187 309 1184 0
1188 25 1187 0
1191 1189 1190 0
1190 312 1191 0
1189 306 1190 0
1191 311 1189 0
1169 1192 1190 0
1190 306 1169 0
1192 312 1190 0
1169 85 1192 0
1193 1174 1189 0
1189 311 1193 0
1174 306 1189 0
1193 83 1174 0
1195 1194 1191 0
1191 312 1195 0
1194 311 1191 0
1195 24 1194 0
1198 1196 1197 0
1197 315 1198 0
1196 314 1197 0
1198 313 1196 0
1200 1199 1197 0
1197 314 1200 0
1199 315 1197 0
1200 87 1199 0
1202 1201 1196 0
1196 313 1202 0
1201 314 1196 0
1202 84 1201 0
1204 1203 1198 0
1198 315 1204 0
1203 313 1198 0
1204 86 1203 0
1207 1205 1206 0
1206 309 1207 0
1205 314 1206 0
1207 316 1205 0
1201 1186 1206 0
1206 314 1201 0
1186 309 1206 0
1201 84 1186 0
1208 1200 1205 0
1205 316 1208 0
1200 314 1205 0
1208 87 1200 0
1187 1209 1207 0
1207 309 1187 0
1209 316 1207 0
1187 25 1209 0
1212 1210 1211 0
1211 317 1212 0
1210 313 1211 0
1212 308 1210 0
1203 1213 1211 0
1211 313 1203 0
1213 317 1211 0
1203 86 1213 0
1178 1202 1210 0
1210 308 1178 0
1202 313 1210 0
1178 84 1202 0
1214 1181 1212 0
1212 317 1214 0
1181 308 1212 0
1214 26 1181 0
1217 1215 1216 0
1216 319 1217 0
1215 315 1216 0
1217 318 1215 0
1199 1218 1216 0
1216 315 1199 0
1218 319 1216 0
1199 87 1218 0
1219 1204 1215 0
1215 318 1219 0
1204 315 1215 0
1219 86 1204 0
1221 1220 1217 0
1217 319 1221 0
1220 318 1217 0
1221 5 1220 0
1224 1222 1223 0
1223 322 1224 0
1222 321 1223 0
1224 320 1222 0
1226 1225 1223 0
1223 321 1226 0
1225 322 1223 0
1226 77 1225 0
1228 1227 1222 0
1222 320 1228 0
1227 321 1222 0
1228 83 1227 0
1230 1229 1224 0
1224 322 1230 0
1229 320 1224 0
1230 88 1229 0
1233 1231 1232 0
1232 311 1233 0
1231 321 1232 0
1233 287 1231 0
1227 1193 1232 0
1232 321 1227 0
1193 311 1232 0
1227 83 1193 0
1105 1226 1231 0
1231 287 1105 0
1226 321 1231 0
1105 77 1226 0
1194 1106 1233 0
1233 311 1194 0
1106 287 1233 0
1194 24 1106 0
1236 1234 1235 0
1235 323 1236 0
1234 320 1235 0
1236 310 1234 0
1229 1237 1235 0
1235 320 1229 0
1237 323 1235 0
1229 88 1237 0
1185 1228 1234 0
1234 310 1185 0
1228 320 1234 0
1185 83 1228 0
1238 1188 1236 0
1236 323 1238 0
1188 310 1236 0
1238 25 1188 0
1241 1239 1240 0
1240 288 1241 0
1239 322 1240 0
1241 324 1239 0
1225 1111 1240 0
1240 322 1225 0
1111 288 1240 0
1225 77 1111 0
1242 1230 1239 0
1239 324 1242 0
1230 322 1239 0
1242 88 1230 0
1112 1243 1241 0
1241 288 1112 0
1243 324 1241 0
1112 3 1243 0
1246 1244 1245 0
1245 327 1246 0
1244 326 1245 0
1246 325 1244 0
1248 1247 1245 0
1245 326 1248 0
1247 327 1245 0
1248 89 1247 0
1250 1249 1244 0
1244 325 1250 0
1249 326 1244 0
1250 85 1249 0
1252 1251 1246 0
1246 327 1252 0
1251 325 1246 0
1252 82 1251 0
1255 1253 1254 0
1254 307 1255 0
1253 326 1254 0
1255 328 1253 0
1249 1179 1254 0
1254 326 1249 0
1179 307 1254 0
1249 85 1179 0
1256 1248 1253 0
1253 328 1256 0
1248 326 1253 0
1256 89 1248 0
1180 1257 1255 0
1255 307 1180 0
1257 328 1255 0
1180 26 1257 0
1260 1258 1259 0
1259 300 1260 0
1258 325 1259 0
1260 312 1258 0
1251 1152 1259 0
1259 325 1251 0
1152 300 1259 0
1251 82 1152 0
1192 1250 1258 0
1258 312 1192 0
1250 325 1258 0
1192 85 1250 0
1153 1195 1260 0
1260 300 1153 0
1195 312 1260 0
1153 24 1195 0
1263 1261 1262 0
1262 329 1263 0
1261 327 1262 0
1263 303 1261 0
1247 1264 1262 0
1262 327 1247 0
1264 329 1262 0
1247 89 1264 0
1162 1252 1261 0
1261 303 1162 0
1252 327 1261 0
1162 82 1252 0
1265 1165 1263 0
1263 329 1265 0
1165 303 1263 0
1265 0 1165 0
1268 1266 1267 0
1267 332 1268 0
1266 331 1267 0
1268 330 1266 0
1270 1269 1267 0
1267 331 1270 0
1269 332 1267 0
1270 92 1269 0
1272 1271 1266 0
1266 330 1272 0
1271 331 1266 0
1272 91 1271 0
1274 1273 1268 0
1268 332 1274 0
1273 330 1268 0
1274 90 1273 0
1277 1275 1276 0
1276 334 1277 0
1275 331 1276 0
1277 333 1275 0
1271 1278 1276 0
1276 331 1271 0
1278 334 1276 0
1271 91 1278 0
1279 1270 1275 0
1275 333 1279 0
1270 331 1275 0
1279 92 1270 0
1281 1280 1277 0
1277 334 1281 0
1280 333 1277 0
1281 29 1280 0
1284 1282 1283 0
1283 336 1284 0
1282 330 1283 0
1284 335 1282 0
1273 1285 1283 0
1283 330 1273 0
1285 336 1283 0
1273 90 1285 0
1286 1272 1282 0
1282 335 1286 0
1272 330 1282 0
1286 91 1272 0
1288 1287 1284 0
1284 336 1288 0
1287 335 1284 0
1288 28 1287 0
1291 1289 1290 0
1290 338 1291 0
1289 332 1290 0
1291 337 1289 0
1269 1292 1290 0
1290 332 1269 0
1292 338 1290 0
1269 92 1292 0
1293 1274 1289 0
1289 337 1293 0
1274 332 1289 0
1293 90 1274 0
1295 1294 1291 0
1291 338 1295 0
1294 337 1291 0
1295 27 1294 0
1298 1296 1297 0
1297 341 1298 0
1296 340 1297 0
1298 339 1296 0
1300 1299 1297 0
1297 340 1300 0
1299 341 1297 0
1300 94 1299 0
1302 1301 1296 0
1296 339 1302 0
1301 340 1296 0
1302 91 1301 0
1304 1303 1298 0
1298 341 1304 0
1303 339 1298 0
1304 93 1303 0
1307 1305 1306 0
1306 335 1307 0
1305 340 1306 0
1307 342 1305 0
1301 1286 1306 0
1306 340 1301 0
1286 335 1306 0
1301 91 1286 0
1308 1300 1305 0
1305 342 1308 0
1300 340 1305 0
1308 94 1300 0
1287 1309 1307 0
1307 335 1287 0
1309 342 1307 0
1287 28 1309 0
1312 1310 1311 0
1311 343 1312 0
1310 339 1311 0
1312 334 1310 0
1303 1313 1311 0
1311 339 1303 0
1313 343 1311 0
1303 93 1313 0
1278 1302 1310 0
1310 334 1278 0
1302 339 1310 0
1278 91 1302 0
1314 1281 1312 0
1312 343 1314 0
1281 334 1312 0
1314 29 1281 0
1317 1315 1316 0
1316 345 1317 0
1315 341 1316 0
1317 344 1315 0
1299 1318 1316 0
1316 341 1299 0
1318 345 1316 0
1299 94 1318 0
1319 1304 1315 0
1315 344 1319 0
1304 341 1315 0
1319 93 1304 0
1321 1320 1317 0
1317 345 1321 0
1320 344 1317 0
1321 1 1320 0
1324 1322 1323 0
1323 348 1324 0
1322 347 1323 0
1324 346 1322 0
1326 1325 1323 0
1323 347 1326 0
1325 348 1323 0
1326 96 1325 0
1328 1327 1322 0
1322 346 1328 0
1327 347 1322 0
1328 90 1327 0
1330 1329 1324 0
1324 348 1330 0
1329 346 1324 0
1330 95 1329 0
1333 1331 1332 0
1332 337 1333 0
1331 347 1332 0
1333 349 1331 0
1327 1293 1332 0
1332 347 1327 0
1293 337 1332 0
1327 90 1293 0
1334 1326 1331 0
1331 349 1334 0
1326 347 1331 0
1334 96 1326 0
1294 1335 1333 0
1333 337 1294 0
1335 349 1333 0
1294 27 1335 0
1338 1336 1337 0
1337 350 1338 0
1336 346 1337 0
1338 336 1336 0
1329 1339 1337 0
1337 346 1329 0
1339 350 1337 0
1329 95 1339 0
1285 1328 1336 0
1336 336 1285 0
1328 346 1336 0
1285 90 1328 0
1340 1288 1338 0
1338 350 1340 0
1288 336 1338 0
1340 28 1288 0
1343 1341 1342 0
1342 352 1343 0
1341 348 1342 0
1343 351 1341 0
1325 1344 1342 0
1342 348 1325 0
1344 352 1342 0
1325 96 1344 0
1345 1330 1341 0
1341 351 1345 0
1330 348 1341 0
1345 95 1330 0
1347 1346 1343 0
1343 352 1347 0
1346 351 1343 0
1347 7 1346 0
1350 1348 1349 0
1349 355 1350 0
1348 354 1349 0
1350 353 1348 0
1352 1351 1349 0
1349 354 1352 0
1351 355 1349 0
1352 98 1351 0
1354 1353 1348 0
1348 353 1354 0
1353 354 1348 0
1354 92 1353 0
1356 1355 1350 0
1350 355 1356 0
1355 353 1350 0
1356 97 1355 0
1359 1357 1358 0
1358 333 1359 0
1357 354 1358 0
1359 356 1357 0
1353 1279 1358 0
1358 354 1353 0
1279 333 1358 0
1353 92 1279 0
1360 1352 1357 0
1357 356 1360 0
1352 354 1357 0
1360 98 1352 0
1280 1361 1359 0
1359 333 1280 0
1361 356 1359 0
1280 29 1361 0
1364 1362 1363 0
1363 357 1364 0
1362 353 1363 0
1364 338 1362 0
1355 1365 1363 0
1363 353 1355 0
1365 357 1363 0
1355 97 1365 0
1292 1354 1362 0
1362 338 1292 0
1354 353 1362 0
1292 92 1354 0
1366 1295 1364 0
1364 357 1366 0
1295 338 1364 0
1366 27 1295 0
1369 1367 1368 0
1368 359 1369 0
1367 355 1368 0
1369 358 1367 0
1351 1370 1368 0
1368 355 1351 0
1370 359 1368 0
1351 98 1370 0
1371 1356 1367 0
1367 358 1371 0
1356 355 1367 0
1371 97 1356 0
1373 1372 1369 0
1369 359 1373 0
1372 358 1369 0
1373 2 1372 0
1376 1374 1375 0
1375 362 1376 0
1374 361 1375 0
1376 360 1374 0
1378 1377 1375 0
1375 361 1378 0
1377 362 1375 0
1378 101 1377 0
1380 1379 1374 0
1374 360 1380 0
1379 361 1374 0
1380 100 1379 0
1382 1381 1376 0
1376 362 1382 0
1381 360 1376 0
1382 99 1381 0
1385 1383 1384 0
1384 364 1385 0
1383 361 1384 0
1385 363 1383 0
1379 1386 1384 0
1384 361 1379 0
1386 364 1384 0
1379 100 1386 0
1387 1378 1383 0
1383 363 1387 0
1378 361 1383 0
1387 101 1378 0
1389 1388 1385 0
1385 364 1389 0
1388 363 1385 0
1389 31 1388 0
1392 1390 1391 0
1391 366 1392 0
1390 360 1391 0
1392 365 1390 0
1381 1393 1391 0
1391 360 1381 0
1393 366 1391 0
1381 99 1393 0
1394 1380 1390 0
1390 365 1394 0
1380 360 1390 0
1394 100 1380 0
1396 1395 1392 0
1392 366 1396 0
1395 365 1392 0
1396 30 1395 0
1399 1397 1398 0
1398 368 1399 0
1397 362 1398 0
1399 367 1397 0
1377 1400 1398 0
1398 362 1377 0
1400 368 1398 0
1377 101 1400 0
1401 1382 1397 0
1397 367 1401 0
1382 362 1397 0
1401 99 1382 0
1403 1402 1399 0
1399 368 1403 0
1402 367 1399 0
1403 29 1402 0
1406 1404 1405 0
1405 371 1406 0
1404 370 1405 0
1406 369 1404 0
1408 1407 1405 0
1405 370 1408 0
1407 371 1405 0
1408 103 1407 0
1410 1409 1404 0
1404 369 1410 0
1409 370 1404 0
1410 100 1409 0
1412 1411 1406 0
1406 371 1412 0
1411 369 1406 0
1412 102 1411 0
1415 1413 1414 0
1414 365 1415 0
1413 370 1414 0
1415 372 1413 0
1409 1394 1414 0
1414 370 1409 0
1394 365 1414 0
1409 100 1394 0
1416 1408 1413 0
1413 372 1416 0
1408 370 1413 0
1416 103 1408 0
1395 1417 1415 0
1415 365 1395 0
1417 372 1415 0
1395 30 1417 0
1420 1418 1419 0
1419 373 1420 0
1418 369 1419 0
1420 364 1418 0
1411 1421 1419 0
1419 369 1411 0
1421 373 1419 0
1411 102 1421 0
1386 1410 1418 0
1418 364 1386 0
1410 369 1418 0
1386 100 1410 0
1422 1389 1420 0
1420 373 1422 0
1389 364 1420 0
1422 31 1389 0
1425 1423 1424 0
1424 375 1425 0
1423 371 1424 0
1425 374 1423 0
1407 1426 1424 0
1424 371 1407 0
1426 375 1424 0
1407 103 1426 0
1427 1412 1423 0
1423 374 1427 0
1412 371 1423 0
1427 102 1412 0
1429 1428 1425 0
1425 375 1429 0
1428 374 1425 0
1429 6 1428 0
1432 1430 1431 0
1431 378 1432 0
1430 377 1431 0
1432 376 1430 0
1434 1433 1431 0
1431 377 1434 0
1433 378 1431 0
1434 93 1433 0
1436 1435 1430 0
1430 376 1436 0
1435 377 1430 0
1436 99 1435 0
1438 1437 1432 0
1432 378 1438 0
1437 376 1432 0
1438 104 1437 0
1441 1439 1440 0
1440 367 1441 0
1439 377 1440 0
1441 343 1439 0
1435 1401 1440 0
1440 377 1435 0
1401 367 1440 0
1435 99 1401 0
1313 1434 1439 0
1439 343 1313 0
1434 377 1439 0
1313 93 1434 0
1402 1314 1441 0
1441 367 1402 0
1314 343 1441 0
1402 29 1314 0
1444 1442 1443 0
1443 379 1444 0
1442 376 1443 0
1444 366 1442 0
1437 1445 1443 0
1443 376 1437 0
1445 379 1443 0
1437 104 1445 0
1393 1436 1442 0
1442 366 1393 0
1436 376 1442 0
1393 99 1436 0
1446 1396 1444 0
1444 379 1446 0
1396 366 1444 0
1446 30 1396 0
1449 1447 1448 0
1448 344 1449 0
1447 378 1448 0
1449 380 1447 0
1433 1319 1448 0
1448 378 1433 0
1319 344 1448 0
1433 93 1319 0
1450 1438 1447 0
1447 380 1450 0
1438 378 1447 0
1450 104 1438 0
1320 1451 1449 0
1449 344 1320 0
1451 380 1449 0
1320 1 1451 0
1454 1452 1453 0
1453 383 1454 0
1452 382 1453 0
1454 381 1452 0
1456 1455 1453 0
1453 382 1456 0
1455 383 1453 0
1456 105 1455 0
1458 1457 1452 0
1452 381 1458 0
1457 382 1452 0
1458 101 1457 0
1460 1459 1454 0
1454 383 1460 0
1459 381 1454 0
1460 98 1459 0
1463 1461 1462 0
1462 363 1463 0
1461 382 1462 0
1463 384 1461 0
1457 1387 1462 0
1462 382 1457 0
1387 363 1462 0
1457 101 1387 0
1464 1456 1461 0
1461 384 1464 0
1456 382 1461 0
1464 105 1456 0
1388 1465 1463 0
1463 363 1388 0
1465 384 1463 0
1388 31 1465 0
1468 1466 1467 0
1467 356 1468 0
1466 381 1467 0
1468 368 1466 0
1459 1360 1467 0
1467 381 1459 0
1360 356 1467 0
1459 98 1360 0
1400 1458 1466 0
1466 368 1400 0
1458 381 1466 0
1400 101 1458 0
1361 1403 1468 0
1468 356 1361 0
1403 368 1468 0
1361 29 1403 0
1471 1469 1470 0
1470 385 1471 0
1469 383 1470 0
1471 359 1469 0
1455 1472 1470 0
1470 383 1455 0
1472 385 1470 0
1455 105 1472 0
1370 1460 1469 0
1469 359 1370 0
1460 383 1469 0
1370 98 1460 0
1473 1373 1471 0
1471 385 1473 0
1373 359 1471 0
1473 2 1373 0
1476 1474 1475 0
1475 388 1476 0
1474 387 1475 0
1476 386 1474 0
1478 1477 1475 0
1475 387 1478 0
1477 388 1475 0
1478 108 1477 0
1480 1479 1474 0
1474 386 1480 0
1479 387 1474 0
1480 107 1479 0
1482 1481 1476 0
1476 388 1482 0
1481 386 1476 0
1482 106 1481 0
1485 1483 1484 0
1484 390 1485 0
1483 387 1484 0
1485 389 1483 0
1479 1486 1484 0
1484 387 1479 0
1486 390 1484 0
1479 107 1486 0
1487 1478 1483 0
1483 389 1487 0
1478 387 1483 0
1487 108 1478 0
1489 1488 1485 0
1485 390 1489 0
1488 389 1485 0
1489 34 1488 0
1492 1490 1491 0
1491 392 1492 0
1490 386 1491 0
1492 391 1490 0
1481 1493 1491 0
1491 386 1481 0
1493 392 1491 0
1481 106 1493 0
1494 1480 1490 0
1490 391 1494 0
1480 386 1490 0
1494 107 1480 0
1496 1495 1492 0
1492 392 1496 0
1495 391 1492 0
1496 33 1495 0
1499 1497 1498 0
1498 394 1499 0
1497 388 1498 0
1499 393 1497 0
1477 1500 1498 0
1498 388 1477 0
1500 394 1498 0
1477 108 1500 0
1501 1482 1497 0
1497 393 1501 0
1482 388 1497 0
1501 106 1482 0
1503 1502 1499 0
1499 394 1503 0
1502 393 1499 0
1503 32 1502 0
1506 1504 1505 0
1505 397 1506 0
1504 396 1505 0
1506 395 1504 0
1508 1507 1505 0
1505 396 1508 0
1507 397 1505 0
1508 110 1507 0
1510 1509 1504 0
1504 395 1510 0
1509 396 1504 0
1510 107 1509 0
1512 1511 1506 0
1506 397 1512 0
1511 395 1506 0
1512 109 1511 0
1515 1513 1514 0
1514 391 1515 0
1513 396 1514 0
1515 398 1513 0
1509 1494 1514 0
1514 396 1509 0
1494 391 1514 0
1509 107 1494 0
1516 1508 1513 0
1513 398 1516 0
1508 396 1513 0
1516 110 1508 0
1495 1517 1515 0
1515 391 1495 0
1517 398 1515 0
1495 33 1517 0
1520 1518 1519 0
1519 399 1520 0
1518 395 1519 0
1520 390 1518 0
1511 1521 1519 0
1519 395 1511 0
1521 399 1519 0
1511 109 1521 0
1486 1510 1518 0
1518 390 1486 0
1510 395 1518 0
1486 107 1510 0
1522 1489 1520 0
1520 399 1522 0
1489 390 1520 0
1522 34 1489 0
1525 1523 1524 0
1524 401 1525 0
1523 397 1524 0
1525 400 1523 0
1507 1526 1524 0
1524 397 1507 0
1526 401 1524 0
1507 110 1526 0
1527 1512 1523 0
1523 400 1527 0
1512 397 1523 0
1527 109 1512 0
1529 1528 1525 0
1525 401 1529 0
1528 400 1525 0
1529 11 1528 0
1532 1530 1531 0
1531 404 1532 0
1530 403 1531 0
1532 402 1530 0
1534 1533 1531 0
1531 403 1534 0
1533 404 1531 0
1534 112 1533 0
1536 1535 1530 0
1530 402 1536 0
1535 403 1530 0
1536 106 1535 0
1538 1537 1532 0
1532 404 1538 0
1537 402 1532 0
1538 111 1537 0
1541 1539 1540 0
1540 393 1541 0
1539 403 1540 0
1541 405 1539 0
1535 1501 1540 0
1540 403 1535 0
1501 393 1540 0
1535 106 1501 0
1542 1534 1539 0
1539 405 1542 0
1534 403 1539 0
1542 112 1534 0
1502 1543 1541 0
1541 393 1502 0
1543 405 1541 0
1502 32 1543 0
1546 1544 1545 0
1545 406 1546 0
1544 402 1545 0
1546 392 1544 0
1537 1547 1545 0
1545 402 1537 0
1547 406 1545 0
1537 111 1547 0
1493 1536 1544 0
1544 392 1493 0
1536 402 1544 0
1493 106 1536 0
1548 1496 1546 0
1546 406 1548 0
1496 392 1546 0
1548 33 1496 0
1551 1549 1550 0
1550 408 1551 0
1549 404 1550 0
1551 407 1549 0
1533 1552 1550 0
1550 404 1533 0
1552 408 1550 0
1533 112 1552 0
1553 1538 1549 0
1549 407 1553 0
1538 404 1549 0
1553 111 1538 0
1555 1554 1551 0
1551 408 1555 0
1554 407 1551 0
1555 0 1554 0
1558 1556 1557 0
1557 411 1558 0
1556 410 1557 0
1558 409 1556 0
1560 1559 1557 0
1557 410 1560 0
1559 411 1557 0
1560 114 1559 0
1562 1561 1556 0
1556 409 1562 0
1561 410 1556 0
1562 108 1561 0
1564 1563 1558 0
1558 411 1564 0
1563 409 1558 0
1564 113 1563 0
1567 1565 1566 0
1566 389 1567 0
1565 410 1566 0
1567 412 1565 0
1561 1487 1566 0
1566 410 1561 0
1487 389 1566 0
1561 108 1487 0
1568 1560 1565 0
1565 412 1568 0
1560 410 1565 0
1568 114 1560 0
1488 1569 1567 0
1567 389 1488 0
1569 412 1567 0
1488 34 1569 0
1572 1570 1571 0
1571 413 1572 0
1570 409 1571 0
1572 394 1570 0
1563 1573 1571 0
1571 409 1563 0
1573 413 1571 0
1563 113 1573 0
1500 1562 1570 0
1570 394 1500 0
1562 409 1570 0
1500 108 1562 0
1574 1503 1572 0
1572 413 1574 0
1503 394 1572 0
1574 32 1503 0
1577 1575 1576 0
1576 415 1577 0
1575 411 1576 0
1577 414 1575 0
1559 1578 1576 0
1576 411 1559 0
1578 415 1576 0
1559 114 1578 0
1579 1564 1575 0
1575 414 1579 0
1564 411 1575 0
1579 113 1564 0
1581 1580 1577 0
1577 415 1581 0
1580 414 1577 0
1581 8 1580 0
1584 1582 1583 0
1583 418 1584 0
1582 417 1583 0
1584 416 1582 0
1586 1585 1583 0
1583 417 1586 0
1585 418 1583 0
1586 117 1585 0
1588 1587 1582 0
1582 416 1588 0
1587 417 1582 0
1588 116 1587 0
1590 1589 1584 0
1584 418 1590 0
1589 416 1584 0
1590 115 1589 0
1593 1591 1592 0
1592 420 1593 0
1591 417 1592 0
1593 419 1591 0
1587 1594 1592 0
1592 417 1587 0
1594 420 1592 0
1587 116 1594 0
1595 1586 1591 0
1591 419 1595 0
1586 417 1591 0
1595 117 1586 0
1597 1596 1593 0
1593 420 1597 0
1596 419 1593 0
1597 36 1596 0
1600 1598 1599 0
1599 422 1600 0
1598 416 1599 0
1600 421 1598 0
1589 1601 1599 0
1599 416 1589 0
1601 422 1599 0
1589 115 1601 0
1602 1588 1598 0
1598 421 1602 0
1588 416 1598 0
1602 116 1588 0
1604 1603 1600 0
1600 422 1604 0
1603 421 1600 0
1604 35 1603 0
1607 1605 1606 0
1606 424 1607 0
1605 418 1606 0
1607 423 1605 0
1585 1608 1606 0
1606 418 1585 0
1608 424 1606 0
1585 117 1608 0
1609 1590 1605 0
1605 423 1609 0
1590 418 1605 0
1609 115 1590 0
1611 1610 1607 0
1607 424 1611 0
1610 423 1607 0
1611 34 1610 0
1614 1612 1613 0
1613 427 1614 0
1612 426 1613 0
1614 425 1612 0
1616 1615 1613 0
1613 426 1616 0
1615 427 1613 0
1616 119 1615 0
1618 1617 1612 0
1612 425 1618 0
1617 426 1612 0
1618 116 1617 0
1620 1619 1614 0
1614 427 1620 0
1619 425 1614 0
1620 118 1619 0
1623 1621 1622 0
1622 421 1623 0
1621 426 1622 0
1623 428 1621 0
1617 1602 1622 0
1622 426 1617 0
1602 421 1622 0
1617 116 1602 0
1624 1616 1621 0
1621 428 1624 0
1616 426 1621 0
1624 119 1616 0
1603 1625 1623 0
1623 421 1603 0
1625 428 1623 0
1603 35 1625 0
1628 1626 1627 0
1627 429 1628 0
1626 425 1627 0
1628 420 1626 0
1619 1629 1627 0
1627 425 1619 0
1629 429 1627 0
1619 118 1629 0
1594 1618 1626 0
1626 420 1594 0
1618 425 1626 0
1594 116 1618 0
1630 1597 1628 0
1628 429 1630 0
1597 420 1628 0
1630 36 1597 0
1633 1631 1632 0
1632 431 1633 0
1631 427 1632 0
1633 430 1631 0
1615 1634 1632 0
1632 427 1615 0
1634 431 1632 0
1615 119 1634 0
1635 1620 1631 0
1631 430 1635 0
1620 427 1631 0
1635 118 1620 0
1637 1636 1633 0
1633 431 1637 0
1636 430 1633 0
1637 1 1636 0
1640 1638 1639 0
1639 434 1640 0
1638 433 1639 0
1640 432 1638 0
1642 1641 1639 0
1639 433 1642 0
1641 434 1639 0
1642 109 1641 0
1644 1643 1638 0
1638 432 1644 0
1643 433 1638 0
1644 115 1643 0
1646 1645 1640 0
1640 434 1646 0
1645 432 1640 0
1646 120 1645 0
1649 1647 1648 0
1648 423 1649 0
1647 433 1648 0
1649 399 1647 0
1643 1609 1648 0
1648 433 1643 0
1609 423 1648 0
1643 115 1609 0
1521 1642 1647 0
1647 399 1521 0
1642 433 1647 0
1521 109 1642 0
1610 1522 1649 0
1649 423 1610 0
1522 399 1649 0
1610 34 1522 0
1652 1650 1651 0
1651 435 1652 0
1650 432 1651 0
1652 422 1650 0
1645 1653 1651 0
1651 432 1645 0
1653 435 1651 0
1645 120 1653 0
1601 1644 1650 0
1650 422 1601 0
1644 432 1650 0
1601 115 1644 0
1654 1604 1652 0
1652 435 1654 0
1604 422 1652 0
1654 35 1604 0
1657 1655 1656 0
1656 400 1657 0
1655 434 1656 0
1657 436 1655 0
1641 1527 1656 0
1656 434 1641 0
1527 400 1656 0
1641 109 1527 0
1658 1646 1655 0
1655 436 1658 0
1646 434 1655 0
1658 120 1646 0
1528 1659 1657 0
1657 400 1528 0
1659 436 1657 0
1528 11 1659 0
1662 1660 1661 0
1661 439 1662 0
1660 438 1661 0
1662 437 1660 0
1664 1663 1661 0
1661 438 1664 0
1663 439 1661 0
1664 121 1663 0
1666 1665 1660 0
1660 437 1666 0
1665 438 1660 0
1666 117 1665 0
1668 1667 1662 0
1662 439 1668 0
1667 437 1662 0
1668 114 1667 0
1671 1669 1670 0
1670 419 1671 0
1669 438 1670 0
1671 440 1669 0
1665 1595 1670 0
1670 438 1665 0
1595 419 1670 0
1665 117 1595 0
1672 1664 1669 0
1669 440 1672 0
1664 438 1669 0
1672 121 1664 0
1596 1673 1671 0
1671 419 1596 0
1673 440 1671 0
1596 36 1673 0
1676 1674 1675 0
1675 412 1676 0
1674 437 1675 0
1676 424 1674 0
1667 1568 1675 0
1675 437 1667 0
1568 412 1675 0
1667 114 1568 0
1608 1666 1674 0
1674 424 1608 0
1666 437 1674 0
1608 117 1666 0
1569 1611 1676 0
1676 412 1569 0
1611 424 1676 0
1569 34 1611 0
1679 1677 1678 0
1678 441 1679 0
1677 439 1678 0
1679 415 1677 0
1663 1680 1678 0
1678 439 1663 0
1680 441 1678 0
1663 121 1680 0
1578 1668 1677 0
1677 415 1578 0
1668 439 1677 0
1578 114 1668 0
1681 1581 1679 0
1679 441 1681 0
1581 415 1679 0
1681 8 1581 0
1684 1682 1683 0
1683 444 1684 0
1682 443 1683 0
1684 442 1682 0
1686 1685 1683 0
1683 443 1686 0
1685 444 1683 0
1686 124 1685 0
1688 1687 1682 0
1682 442 1688 0
1687 443 1682 0
1688 123 1687 0
1690 1689 1684 0
1684 444 1690 0
1689 442 1684 0
1690 122 1689 0
1693 1691 1692 0
1692 446 1693 0
1691 443 1692 0
1693 445 1691 0
1687 1694 1692 0
1692 443 1687 0
1694 446 1692 0
1687 123 1694 0
1695 1686 1691 0
1691 445 1695 0
1686 443 1691 0
1695 124 1686 0
1697 1696 1693 0
1693 446 1697 0
1696 445 1693 0
1697 39 1696 0
1700 1698 1699 0
1699 448 1700 0
1698 442 1699 0
1700 447 1698 0
1689 1701 1699 0
1699 442 1689 0
1701 448 1699 0
1689 122 1701 0
1702 1688 1698 0
1698 447 1702 0
1688 442 1698 0
1702 123 1688 0
1704 1703 1700 0
1700 448 1704 0
1703 447 1700 0
1704 38 1703 0
1707 1705 1706 0
1706 450 1707 0
1705 444 1706 0
1707 449 1705 0
1685 1708 1706 0
1706 444 1685 0
1708 450 1706 0
1685 124 1708 0
1709 1690 1705 0
1705 449 1709 0
1690 444 1705 0
1709 122 1690 0
1711 1710 1707 0
1707 450 1711 0
1710 449 1707 0
1711 37 1710 0
1714 1712 1713 0
1713 453 1714 0
1712 452 1713 0
1714 451 1712 0
1716 1715 1713 0
1713 452 1716 0
1715 453 1713 0
1716 126 1715 0
1718 1717 1712 0
1712 451 1718 0
1717 452 1712 0
1718 123 1717 0
1720 1719 1714 0
1714 453 1720 0
1719 451 1714 0
1720 125 1719 0
1723 1721 1722 0
1722 447 1723 0
1721 452 1722 0
1723 454 1721 0
1717 1702 1722 0
1722 452 1717 0
1702 447 1722 0
1717 123 1702 0
1724 1716 1721 0
1721 454 1724 0
1716 452 1721 0
1724 126 1716 0
1703 1725 1723 0
1723 447 1703 0
1725 454 1723 0
1703 38 1725 0
1728 1726 1727 0
1727 455 1728 0
1726 451 1727 0
1728 446 1726 0
1719 1729 1727 0
1727 451 1719 0
1729 455 1727 0
1719 125 1729 0
1694 1718 1726 0
1726 446 1694 0
1718 451 1726 0
1694 123 1718 0
1730 1697 1728 0
1728 455 1730 0
1697 446 1728 0
1730 39 1697 0
1733 1731 1732 0
1732 457 1733 0
1731 453 1732 0
1733 456 1731 0
1715 1734 1732 0
1732 453 1715 0
1734 457 1732 0
1715 126 1734 0
1735 1720 1731 0
1731 456 1735 0
1720 453 1731 0
1735 125 1720 0
1737 1736 1733 0
1733 457 1737 0
1736 456 1733 0
1737 3 1736 0
1740 1738 1739 0
1739 460 1740 0
1738 459 1739 0
1740 458 1738 0
1742 1741 1739 0
1739 459 1742 0
1741 460 1739 0
1742 128 1741 0
1744 1743 1738 0
1738 458 1744 0
1743 459 1738 0
1744 122 1743 0
1746 1745 1740 0
1740 460 1746 0
1745 458 1740 0
1746 127 1745 0
1749 1747 1748 0
1748 449 1749 0
1747 459 1748 0
1749 461 1747 0
1743 1709 1748 0
1748 459 1743 0
1709 449 1748 0
1743 122 1709 0
1750 1742 1747 0
1747 461 1750 0
1742 459 1747 0
1750 128 1742 0
1710 1751 1749 0
1749 449 1710 0
1751 461 1749 0
1710 37 1751 0
1754 1752 1753 0
1753 462 1754 0
1752 458 1753 0
1754 448 1752 0
1745 1755 1753 0
1753 458 1745 0
1755 462 1753 0
1745 127 1755 0
1701 1744 1752 0
1752 448 1701 0
1744 458 1752 0
1701 122 1744 0
1756 1704 1754 0
1754 462 1756 0
1704 448 1754 0
1756 38 1704 0
1759 1757 1758 0
1758 464 1759 0
1757 460 1758 0
1759 463 1757 0
1741 1760 1758 0
1758 460 1741 0
1760 464 1758 0
1741 128 1760 0
1761 1746 1757 0
1757 463 1761 0
1746 460 1757 0
1761 127 1746 0
1763 1762 1759 0
1759 464 1763 0
1762 463 1759 0
1763 10 1762 0
1766 1764 1765 0
1765 467 1766 0
1764 466 1765 0
1766 465 1764 0
1768 1767 1765 0
1765 466 1768 0
1767 467 1765 0
1768 130 1767 0
1770 1769 1764 0
1764 465 1770 0
1769 466 1764 0
1770 124 1769 0
1772 1771 1766 0
1766 467 1772 0
1771 465 1766 0
1772 129 1771 0
1775 1773 1774 0
1774 445 1775 0
1773 466 1774 0
1775 468 1773 0
1769 1695 1774 0
1774 466 1769 0
1695 445 1774 0
1769 124 1695 0
1776 1768 1773 0
1773 468 1776 0
1768 466 1773 0
1776 130 1768 0
1696 1777 1775 0
1775 445 1696 0
1777 468 1775 0
1696 39 1777 0
1780 1778 1779 0
1779 469 1780 0
1778 465 1779 0
1780 450 1778 0
1771 1781 1779 0
1779 465 1771 0
1781 469 1779 0
1771 129 1781 0
1708 1770 1778 0
1778 450 1708 0
1770 465 1778 0
1708 124 1770 0
1782 1711 1780 0
1780 469 1782 0
1711 450 1780 0
1782 37 1711 0
1785 1783 1784 0
1784 471 1785 0
1783 467 1784 0
1785 470 1783 0
1767 1786 1784 0
1784 467 1767 0
1786 471 1784 0
1767 130 1786 0
1787 1772 1783 0
1783 470 1787 0
1772 467 1783 0
1787 129 1772 0
1789 1788 1785 0
1785 471 1789 0
1788 470 1785 0
1789 9 1788 0
1792 1790 1791 0
1791 474 1792 0
1790 473 1791 0
1792 472 1790 0
1794 1793 1791 0
1791 473 1794 0
1793 474 1791 0
1794 133 1793 0
1796 1795 1790 0
1790 472 1796 0
1795 473 1790 0
1796 132 1795 0
1798 1797 1792 0
1792 474 1798 0
1797 472 1792 0
1798 131 1797 0
1801 1799 1800 0
1800 476 1801 0
1799 473 1800 0
1801 475 1799 0
1795 1802 1800 0
1800 473 1795 0
1802 476 1800 0
1795 132 1802 0
1803 1794 1799 0
1799 475 1803 0
1794 473 1799 0
1803 133 1794 0
1805 1804 1801 0
1801 476 1805 0
1804 475 1801 0
1805 37 1804 0
1808 1806 1807 0
1807 478 1808 0
1806 472 1807 0
1808 477 1806 0
1797 1809 1807 0
1807 472 1797 0
1809 478 1807 0
1797 131 1809 0
1810 1796 1806 0
1806 477 1810 0
1796 472 1806 0
1810 132 1796 0
1812 1811 1808 0
1808 478 1812 0
1811 477 1808 0
1812 41 1811 0
1815 1813 1814 0
1814 480 1815 0
1813 474 1814 0
1815 479 1813 0
1793 1816 1814 0
1814 474 1793 0
1816 480 1814 0
1793 133 1816 0
1817 1798 1813 0
1813 479 1817 0
1798 474 1813 0
1817 131 1798 0
1819 1818 1815 0
1815 480 1819 0
1818 479 1815 0
1819 40 1818 0
1822 1820 1821 0
1821 483 1822 0
1820 482 1821 0
1822 481 1820 0
1824 1823 1821 0
1821 482 1824 0
1823 483 1821 0
1824 134 1823 0
1826 1825 1820 0
1820 481 1826 0
1825 482 1820 0
1826 132 1825 0
1828 1827 1822 0
1822 483 1828 0
1827 481 1822 0
1828 128 1827 0
1831 1829 1830 0
1830 477 1831 0
1829 482 1830 0
1831 484 1829 0
1825 1810 1830 0
1830 482 1825 0
1810 477 1830 0
1825 132 1810 0
1832 1824 1829 0
1829 484 1832 0
1824 482 1829 0
1832 134 1824 0
1811 1833 1831 0
1831 477 1811 0
1833 484 1831 0
1811 41 1833 0
1836 1834 1835 0
1835 461 1836 0
1834 481 1835 0
1836 476 1834 0
1827 1750 1835 0
1835 481 1827 0
1750 461 1835 0
1827 128 1750 0
1802 1826 1834 0
1834 476 1802 0
1826 481 1834 0
1802 132 1826 0
1751 1805 1836 0
1836 461 1751 0
1805 476 1836 0
1751 37 1805 0
1839 1837 1838 0
1838 485 1839 0
1837 483 1838 0
1839 464 1837 0
1823 1840 1838 0
1838 483 1823 0
1840 485 1838 0
1823 134 1840 0
1760 1828 1837 0
1837 464 1760 0
1828 483 1837 0
1760 128 1828 0
1841 1763 1839 0
1839 485 1841 0
1763 464 1839 0
1841 10 1763 0
1844 1842 1843 0
1843 488 1844 0
1842 487 1843 0
1844 486 1842 0
1846 1845 1843 0
1843 487 1846 0
1845 488 1843 0
1846 136 1845 0
1848 1847 1842 0
1842 486 1848 0
1847 487 1842 0
1848 131 1847 0
1850 1849 1844 0
1844 488 1850 0
1849 486 1844 0
1850 135 1849 0
1853 1851 1852 0
1852 479 1853 0
1851 487 1852 0
1853 489 1851 0
1847 1817 1852 0
1852 487 1847 0
1817 479 1852 0
1847 131 1817 0
1854 1846 1851 0
1851 489 1854 0
1846 487 1851 0
1854 136 1846 0
1818 1855 1853 0
1853 479 1818 0
1855 489 1853 0
1818 40 1855 0
1858 1856 1857 0
1857 490 1858 0
1856 486 1857 0
1858 478 1856 0
1849 1859 1857 0
1857 486 1849 0
1859 490 1857 0
1849 135 1859 0
1809 1848 1856 0
1856 478 1809 0
1848 486 1856 0
1809 131 1848 0
1860 1812 1858 0
1858 490 1860 0
1812 478 1858 0
1860 41 1812 0
1863 1861 1862 0
1862 492 1863 0
1861 488 1862 0
1863 491 1861 0
1845 1864 1862 0
1862 488 1845 0
1864 492 1862 0
1845 136 1864 0
1865 1850 1861 0
1861 491 1865 0
1850 488 1861 0
1865 135 1850 0
1867 1866 1863 0
1863 492 1867 0
1866 491 1863 0
1867 2 1866 0
1870 1868 1869 0
1869 495 1870 0
1868 494 1869 0
1870 493 1868 0
1872 1871 1869 0
1869 494 1872 0
1871 495 1869 0
1872 129 1871 0
1874 1873 1868 0
1868 493 1874 0
1873 494 1868 0
1874 133 1873 0
1876 1875 1870 0
1870 495 1876 0
1875 493 1870 0
1876 137 1875 0
1879 1877 1878 0
1878 475 1879 0
1877 494 1878 0
1879 469 1877 0
1873 1803 1878 0
1878 494 1873 0
1803 475 1878 0
1873 133 1803 0
1781 1872 1877 0
1877 469 1781 0
1872 494 1877 0
1781 129 1872 0
1804 1782 1879 0
1879 475 1804 0
1782 469 1879 0
1804 37 1782 0
1882 1880 1881 0
1881 496 1882 0
1880 493 1881 0
1882 480 1880 0
1875 1883 1881 0
1881 493 1875 0
1883 496 1881 0
1875 137 1883 0
1816 1874 1880 0
1880 480 1816 0
1874 493 1880 0
1816 133 1874 0
1884 1819 1882 0
1882 496 1884 0
1819 480 1882 0
1884 40 1819 0
1887 1885 1886 0
1886 470 1887 0
1885 495 1886 0
1887 497 1885 0
1871 1787 1886 0
1886 495 1871 0
1787 470 1886 0
1871 129 1787 0
1888 1876 1885 0
1885 497 1888 0
1876 495 1885 0
1888 137 1876 0
1788 1889 1887 0
1887 470 1788 0
1889 497 1887 0
1788 9 1889 0
1892 1890 1891 0
1891 500 1892 0
1890 499 1891 0
1892 498 1890 0
1894 1893 1891 0
1891 499 1894 0
1893 500 1891 0
1894 140 1893 0
1896 1895 1890 0
1890 498 1896 0
1895 499 1890 0
1896 139 1895 0
1898 1897 1892 0
1892 500 1898 0
1897 498 1892 0
1898 138 1897 0
1901 1899 1900 0
1900 502 1901 0
1899 499 1900 0
1901 501 1899 0
1895 1902 1900 0
1900 499 1895 0
1902 502 1900 0
1895 139 1902 0
1903 1894 1899 0
1899 501 1903 0
1894 499 1899 0
1903 140 1894 0
1905 1904 1901 0
1901 502 1905 0
1904 501 1901 0
1905 32 1904 0
1908 1906 1907 0
1907 504 1908 0
1906 498 1907 0
1908 503 1906 0
1897 1909 1907 0
1907 498 1897 0
1909 504 1907 0
1897 138 1909 0
1910 1896 1906 0
1906 503 1910 0
1896 498 1906 0
1910 139 1896 0
1912 1911 1908 0
1908 504 1912 0
1911 503 1908 0
1912 22 1911 0
1915 1913 1914 0
1914 506 1915 0
1913 500 1914 0
1915 505 1913 0
1893 1916 1914 0
1914 500 1893 0
1916 506 1914 0
1893 140 1916 0
1917 1898 1913 0
1913 505 1917 0
1898 500 1913 0
1917 138 1898 0
1919 1918 1915 0
1915 506 1919 0
1918 505 1915 0
1919 12 1918 0
1922 1920 1921 0
1921 509 1922 0
1920 508 1921 0
1922 507 1920 0
1924 1923 1921 0
1921 508 1924 0
1923 509 1921 0
1924 81 1923 0
1926 1925 1920 0
1920 507 1926 0
1925 508 1920 0
1926 139 1925 0
1928 1927 1922 0
1922 509 1928 0
1927 507 1922 0
1928 112 1927 0
1931 1929 1930 0
1930 503 1931 0
1929 508 1930 0
1931 301 1929 0
1925 1910 1930 0
1930 508 1925 0
1910 503 1930 0
1925 139 1910 0
1157 1924 1929 0
1929 301 1157 0
1924 508 1929 0
1157 81 1924 0
1911 1158 1931 0
1931 503 1911 0
1158 301 1931 0
1911 22 1158 0
1934 1932 1933 0
1933 405 1934 0
1932 507 1933 0
1934 502 1932 0
1927 1542 1933 0
1933 507 1927 0
1542 405 1933 0
1927 112 1542 0
1902 1926 1932 0
1932 502 1902 0
1926 507 1932 0
1902 139 1926 0
1543 1905 1934 0
1934 405 1543 0
1905 502 1934 0
1543 32 1905 0
1937 1935 1936 0
1936 302 1937 0
1935 509 1936 0
1937 408 1935 0
1923 1163 1936 0
1936 509 1923 0
1163 302 1936 0
1923 81 1163 0
1552 1928 1935 0
1935 408 1552 0
1928 509 1935 0
1552 112 1928 0
1164 1555 1937 0
1937 302 1164 0
1555 408 1937 0
1164 0 1555 0
1940 1938 1939 0
1939 512 1940 0
1938 511 1939 0
1940 510 1938 0
1942 1941 1939 0
1939 511 1942 0
1941 512 1939 0
1942 49 1941 0
1944 1943 1938 0
1938 510 1944 0
1943 511 1938 0
1944 138 1943 0
1946 1945 1940 0
1940 512 1946 0
1945 510 1940 0
1946 80 1945 0
1949 1947 1948 0
